5.320965 1.770000 -2.095520 -1.092329 -1.570796 0.536801 
0.109604 1.409839 -3.200000 -1.516995 0.736047 -1.570796 
0.000000 1.372929 -3.174433 -1.570796 0.675653 -1.545696 
1.653886 1.920000 -1.724495 -0.758947 1.570796 -0.122223 
4.706910 1.770000 -1.855864 -0.776082 -1.570796 0.277179 
3.786794 1.770000 -1.414157 -0.302208 -1.570796 -0.201325 
2.871949 1.628878 -3.200000 -0.161032 1.094450 -1.570796 
3.200195 1.258539 -1.010989 -0.001008 1.254368 -3.088522 
6.250000 0.227679 -2.882002 -1.570796 -4.308279 1.388803 
2.386705 1.920000 -2.347265 -0.399225 1.570796 -0.733625 
1.780297 0.793445 -2.199106 0.889940 -0.592140 -2.957273 
2.588166 1.625372 -1.468086 -3.020137 2.365617 0.651162 
3.122396 1.033836 -1.012414 0.406964 0.310238 -3.081059 
4.133355 2.130091 -1.922538 0.830715 0.679094 2.974312 
1.508384 1.088994 -0.150000 0.871208 -2.779521 -1.570796 
4.039807 2.088774 -0.379420 -0.292195 -0.024551 -3.087025 
3.044095 1.105574 -0.000000 -0.076530 0.238196 1.570796 
0.974295 0.541342 -1.600343 -3.088574 -1.488454 -0.001645 
1.899056 1.655898 -0.150000 0.670006 -1.773317 -1.570796 
1.552250 1.347842 -1.010142 0.250411 1.629599 -3.092971 
5.148107 0.981147 -3.050000 -1.003305 -2.970941 1.570796 
0.452962 2.151781 -1.040618 2.547245 1.236843 1.766100 
4.902224 0.228800 -3.200000 0.835577 -1.196422 -1.570796 
1.125125 0.661090 -1.246911 2.490054 -1.255931 -1.851521 
6.097969 1.770000 -2.388984 -1.492498 -1.570796 0.854712 
0.956701 2.079554 -0.328886 0.976136 -0.176953 2.934783 
5.229549 2.136795 -2.730462 -2.307749 0.792739 -2.058575 
1.150115 1.770000 -0.848317 1.055722 -1.570796 -0.814304 
1.871353 1.770000 -0.855668 0.684273 -1.570796 -0.806340 
3.576475 0.822539 -0.000000 0.184802 -0.224919 1.570796 
0.150000 1.232265 -0.317154 1.570796 -2.525228 -1.389717 
1.469981 0.477333 -3.050000 0.890986 -3.865165 1.570796 
1.815395 0.021554 -3.050000 0.713092 -4.674132 1.570796 
1.019089 1.272528 -1.489244 3.046040 1.313185 -0.580784 
0.000000 0.169695 -1.657498 -1.570796 -1.293134 -0.056449 
1.637142 0.731735 -0.973594 0.183388 -0.811550 3.092035 
1.374506 0.913108 -2.188627 -1.113045 -0.166716 -2.905600 
2.637454 2.098002 -2.835267 1.479235 0.135549 -2.711486 
1.019599 1.920000 -0.496728 -1.070302 1.570796 1.083135 
6.400001 0.017309 -3.003891 1.570796 -1.542474 -1.378267 
0.150000 0.147020 -2.703383 1.570796 -4.451440 1.195304 
1.395518 1.920000 -1.196796 -0.885773 1.570796 0.395845 
5.996024 0.609964 -3.200000 1.372495 -0.572745 -1.570796 
0.036644 0.000000 -2.523603 -0.803323 -2.338269 -0.175248 
0.815312 0.578924 -0.000000 -1.170581 -0.623534 1.570796 
6.250000 0.152538 -2.472241 -1.570796 -4.441648 0.944905 
6.250000 1.499519 -0.707199 -1.570796 -2.050876 -0.967178 
1.327086 1.541490 -3.050000 0.964579 -1.976381 1.570796 
1.717930 1.770000 -2.299669 0.763289 -1.570796 0.757957 
4.396462 0.894583 -3.050000 -0.616196 -3.124583 1.570796 
5.270372 1.770000 -0.386880 -1.066273 -1.570796 -1.314182 
6.143919 1.770000 -2.345415 -1.516163 -1.570796 0.807514 
2.845894 1.189985 -2.074263 1.856853 0.966328 2.486849 
0.000000 1.560033 -0.243042 -1.570796 0.981802 1.332190 
1.998493 1.770000 -0.269604 0.618795 -1.570796 -1.441228 
5.847551 2.070282 -2.743067 -1.816950 -0.394748 2.518148 
2.976791 1.920000 -2.041969 -0.109567 1.570796 -0.433902 
5.368258 0.364127 -3.050000 -1.116686 -4.066096 1.570796 
6.400001 1.905995 -2.281907 1.570796 1.547881 -0.669461 
4.233662 1.309618 -1.762903 2.969634 1.468995 0.854270 
0.600079 1.770000 -2.720144 1.338999 -1.570796 1.213461 
4.225233 1.413251 -1.467841 3.013827 1.904474 -0.693027 
6.250000 1.641184 -0.785454 -1.570796 -1.799433 -0.882404 
1.506192 1.185053 -1.016450 0.491934 0.945612 -3.059893 
3.768990 0.353707 -1.447742 -2.983541 -2.547476 -0.798443 
3.954813 0.890807 -3.050000 -0.388740 -3.131286 1.570796 
5.653544 0.709692 -3.050000 -1.263613 -3.452749 1.570796 
1.354583 0.407704 -1.019655 -1.211421 -1.963564 2.864653 
4.708034 1.770000 -2.162179 -0.776660 -1.570796 0.609013 
5.353770 0.240547 -1.805313 -2.903722 -3.022929 1.076669 
6.391435 1.920000 -1.546742 1.566592 1.570796 0.052286 
0.000000 0.886978 -2.709185 -1.570796 -0.119482 -1.088940 
3.618414 2.019436 -0.619220 2.800779 -1.412684 -1.326910 
5.079957 1.770000 -0.216693 -0.968206 -1.570796 -1.498547 
0.286951 1.770000 -2.648174 1.500265 -1.570796 1.135494 
3.286313 1.770000 -1.904934 -0.044452 -1.570796 0.330338 
6.250000 0.460923 -1.095143 -1.570796 -3.894292 -0.546915 
3.346043 1.920000 -0.098872 0.071689 1.570796 1.473729 
6.250000 1.287919 -0.696893 -1.570796 -2.426447 -0.978343 
6.141840 1.858350 -0.000000 1.444073 1.469921 1.570796 
1.957729 1.770000 -1.466456 0.639789 -1.570796 -0.144669 
3.699793 1.021891 -0.150000 -0.257401 -2.898622 -1.570796 
1.154026 1.602536 -1.161218 -2.201412 2.284404 2.165871 
2.991727 0.183528 -3.200000 -0.102236 -1.270500 -1.570796 
0.080589 1.019412 -0.000000 -1.531237 0.097212 1.570796 
3.286490 1.036194 -0.976898 0.426973 0.270901 3.075727 
0.196660 1.920000 -0.340874 -1.474262 1.570796 1.236144 
3.964233 1.962529 -2.895595 -0.222807 -2.159374 -3.087282 
1.894666 1.488136 -0.000000 -0.640754 0.864161 1.570796 
0.858673 1.983793 -1.219648 -0.430702 -2.126227 3.080195 
3.329767 1.304811 -0.000000 0.063699 0.564197 1.570797 
2.469404 1.920000 -0.377580 -0.358630 1.570796 1.200109 
5.464687 0.028139 -0.150000 -1.166348 -4.662445 -1.570796 
4.211296 1.197677 -1.582444 3.086911 0.998647 -0.092049 
2.536628 1.920000 -1.050188 -0.325632 1.570796 0.539776 
0.509144 1.977582 -0.495909 2.134863 -2.250598 -2.232001 
3.735005 0.994911 -1.350457 -2.805345 0.146674 -1.308588 
3.085850 1.770000 -2.535880 0.058789 -1.570796 1.013846 
2.382395 1.467924 -0.000000 -0.401341 0.831090 1.570796 
1.864477 1.154188 -1.031385 1.305491 0.690388 2.806808 
6.250000 0.815419 -1.633025 -1.570796 -3.265092 0.035776 
3.586820 1.922379 -2.124430 -2.573838 -2.839470 1.716677 
3.782304 0.322146 -3.200000 0.285838 -1.043686 -1.570796 
5.233866 2.192740 -0.464961 -2.280834 1.740425 2.087109 
4.608798 0.741422 -3.050000 -0.725552 -3.396431 1.570796 
4.560417 0.232666 -3.050000 -0.700635 -4.299428 1.570796 
2.633755 1.770000 -0.876662 0.291625 -1.570796 -0.783597 
0.891701 1.066874 -3.050000 1.188809 -2.818782 1.570796 
0.629421 1.770000 -0.343529 1.323887 -1.570796 -1.361145 
0.413005 2.237702 -2.570823 2.840517 2.956998 1.253818 
3.781901 0.788636 -1.707308 -3.051229 -0.720027 0.562703 
6.400000 0.588311 -1.286360 1.570796 -0.608173 0.307915 
0.487447 1.920000 -2.344563 -1.331522 1.570796 -0.730973 
2.820702 1.920000 -2.484377 -2.316396 -3.332834 0.142597 
4.708386 1.770000 -1.592721 -0.776842 -1.570796 -0.007886 
4.312919 0.927883 -3.050000 -0.573170 -3.065479 1.570796 
2.673494 1.920000 -2.426422 -0.258448 1.570796 -0.811338 
5.516419 1.770000 -2.597589 -1.192991 -1.570796 1.080696 
5.810733 0.312985 -3.050000 -1.344567 -4.156868 1.570796 
1.603492 1.073566 -2.225644 0.017181 0.403764 -3.088289 
2.811113 2.193746 -2.309006 -3.017553 2.076971 -0.667924 
5.293945 1.566641 -1.207591 2.438180 2.156796 1.937006 
3.814862 1.920000 -1.196121 0.301820 1.570796 0.396507 
4.940239 1.770000 -0.471586 -0.896250 -1.570796 -1.222419 
6.250000 1.743065 -1.255264 -1.570796 -1.618603 -0.373456 
6.239839 1.770000 -1.495165 -1.565563 -1.570796 -0.113568 
2.622382 1.920000 -1.117246 -0.283538 1.570796 0.473943 
4.335132 2.207589 -2.765815 2.087664 1.991984 -2.278871 
2.472820 0.835868 -0.150000 0.374509 -3.228796 -1.570796 
2.626807 0.243558 -1.735381 3.005587 -3.010290 0.709944 
0.681316 1.920000 -2.377525 -1.236356 1.570796 -0.763333 
1.183204 1.220375 -1.130928 -2.057386 0.925725 2.315398 
4.343732 0.073900 -3.200000 0.561428 -1.449877 -1.570796 
5.150207 1.920000 -0.775150 -2.801950 -2.879780 0.154801 
1.202311 2.260000 -0.571483 0.530534 3.065506 0.975466 
6.400000 0.281519 -1.804346 1.570796 -1.110162 -0.200616 
1.015214 1.770000 -1.441221 0.481227 3.177071 0.181960 
1.264002 1.770000 -0.416889 0.997068 -1.570796 -1.281674 
0.724398 1.920000 -1.289608 -0.369365 -2.903769 -2.807193 
5.452025 1.920000 -0.744224 1.105460 1.570796 0.840156 
0.000000 0.233147 -1.756082 -1.570796 -1.189310 -0.153233 
5.218153 1.769327 -2.067664 2.064084 2.877402 -2.308445 
3.602442 1.920000 -2.454470 0.197548 1.570796 -0.838874 
0.985711 1.439596 -3.200000 -1.086937 0.784737 -1.570796 
3.159566 1.920000 -1.092147 -0.019848 1.570796 0.498584 
0.346945 1.920000 -0.893635 -1.400490 1.570796 0.693472 
1.297533 0.176749 -2.147621 -1.492992 -2.784701 -2.703176 
0.506275 2.253709 -1.101299 2.155946 3.277439 2.211478 
2.992369 1.920000 -2.809328 -0.101921 1.570796 -1.187255 
4.716592 1.920000 -1.706281 0.744455 1.570796 -0.104341 
0.000000 1.661608 -2.859690 -1.570796 1.148004 -1.236698 
1.436595 1.920000 -1.830978 -0.865610 1.570796 -0.226763 
5.766586 1.920000 -0.024934 1.259870 1.570796 1.546317 
0.461622 2.143736 -0.437404 -2.107902 0.910288 2.258766 
3.267565 1.920000 -1.325409 0.033166 1.570796 0.269579 
5.290937 0.979250 -1.204265 2.423331 0.068442 1.953423 
0.975958 1.640486 -1.689213 -3.080371 2.419335 -0.440327 
4.578781 0.026221 -3.050000 -0.710093 -4.665848 1.570796 
3.276130 1.541523 -3.050000 -0.039208 -1.976324 1.570796 
5.977470 2.235004 -1.123787 2.351396 2.456356 -2.017053 
1.724000 0.460939 -1.022891 -0.650243 -2.096930 -3.026105 
3.174070 0.135748 -3.200000 -0.012728 -1.348680 -1.570796 
1.176379 1.920000 -1.377856 -0.993343 1.570796 0.218090 
0.000000 0.741799 -2.002142 -1.570796 -0.357030 -0.394802 
3.662370 2.151098 -0.543725 2.478134 1.223190 -1.881068 
3.958558 1.148112 -3.200000 0.372356 0.307797 -1.570796 
0.763554 0.631268 -3.050000 1.254807 -3.591945 1.570796 
2.074618 1.920000 -1.030468 -0.552421 1.570796 0.559137 
4.207319 1.082789 -1.390854 -2.925609 0.436562 1.032358 
1.413477 1.920000 -1.411607 -0.876957 1.570796 0.184955 
4.353463 1.204922 -2.038503 -2.204155 0.870788 -2.164537 
3.675722 1.920000 -0.216400 0.233519 1.570796 1.358346 
4.226040 1.024554 -0.000000 0.503656 0.105628 1.570796 
0.000000 0.874003 -1.714336 -1.570796 -0.140712 -0.112249 
4.926514 0.539099 -3.050000 -0.889181 -3.755537 1.570796 
1.793025 1.188879 -2.195438 0.952777 0.813735 -2.939170 
4.889204 0.150000 -0.978121 0.426407 -2.887947 2.976440 
5.448390 1.706939 -0.000000 1.103676 1.222176 1.570796 
6.400000 0.202318 -1.643864 1.570796 -1.239753 -0.043063 
2.765710 0.150000 -1.151306 -1.931386 -2.903287 2.045808 
3.100692 0.338402 -2.219920 -0.490225 -2.209971 -3.060045 
3.144902 0.758728 -2.226739 -0.272016 -0.715583 -3.093698 
4.390738 0.852720 -2.074408 -2.020154 -0.381397 -2.341768 
1.123895 0.456072 -1.192499 -2.350144 -1.791588 2.011458 
5.255553 2.202954 -1.045141 2.528274 2.261286 1.799265 
4.686421 1.034592 -1.021375 0.595611 0.313416 -3.034067 
3.546875 2.094621 -2.606262 -2.822716 0.078273 -1.284943 
3.916519 1.946577 -2.891019 -0.520048 -2.429629 -3.058782 
2.670545 0.693594 -1.859562 2.776242 -1.119376 1.361119 
2.906044 1.555939 -1.089601 1.541460 2.503949 -2.676331 
0.431333 1.473845 -3.200000 -1.359066 0.840777 -1.570796 
6.400000 1.073394 -2.772872 1.570796 0.185542 -1.151464 
2.770972 1.770000 -1.375157 0.220956 -1.570796 -0.243574 
1.067165 1.870788 -0.000000 -1.046953 1.490274 1.570796 
2.872710 1.770000 -0.905009 0.168560 -1.570796 -0.752889 
2.589704 1.730627 -3.200000 -0.299578 1.260936 -1.570796 
1.361721 0.925807 -0.000000 -0.902363 -0.055948 1.570796 
2.000439 0.752542 -2.086054 1.976645 -0.737576 -2.399224 
6.400000 0.389692 -1.360383 1.570796 -0.933164 0.235244 
1.512397 1.176905 -0.150000 0.869141 -2.623487 -1.570796 
3.178737 1.608988 -2.188638 0.111487 2.726885 3.086567 
2.962562 1.447858 -3.050000 0.122284 -2.142570 1.570796 
4.384332 1.770000 -2.550618 -0.609949 -1.570796 1.029813 
5.191081 1.920000 -2.664271 -2.547372 -2.879837 -1.646263 
2.685285 0.746365 -1.313178 2.698945 -0.897632 -1.504069 
1.012261 0.425589 -1.527852 3.081845 -2.245481 -0.378320 
6.250000 0.308148 -1.001929 -1.570796 -4.165454 -0.647895 
1.923867 1.770000 -2.573627 0.657228 -1.570796 1.054738 
3.606328 0.272672 -3.050000 -0.209265 -4.228420 1.570796 
1.042262 1.920000 -1.554390 -1.059177 1.570796 0.044778 
6.267720 0.386380 -3.200000 1.505864 -0.938583 -1.570796 
2.956537 1.920000 -1.550348 -0.119510 1.570796 0.048746 
5.502599 1.770000 -1.047767 -1.185873 -1.570796 -0.598239 
3.792222 1.770000 -2.712302 -0.305003 -1.570796 1.204966 
0.270748 1.447517 -0.150000 1.508609 -2.143175 -1.570796 
6.400001 1.033049 -1.773259 1.570796 0.119527 -0.170097 
0.150000 0.930919 -0.757808 1.570796 -3.060090 -0.912353 
5.461166 1.900791 -0.000000 1.109947 1.539365 1.570796 
1.930193 2.244485 -0.962479 -2.926627 2.616998 -1.012230 
2.124564 1.770000 -2.651738 0.553866 -1.570796 1.139356 
5.942850 0.935862 -3.050000 -1.412610 -3.051317 1.570796 
0.367820 0.757061 -0.000000 -1.390243 -0.332059 1.570796 
4.526298 1.206418 -0.000000 0.651045 0.403201 1.570796 
0.679087 1.770000 -1.634000 1.298309 -1.570796 0.036833 
1.875187 0.408330 -2.164582 1.358366 -1.961342 -2.786851 
1.798595 1.163635 -3.200000 -0.687913 0.333198 -1.570796 
2.873414 0.916707 -2.134293 -1.612046 -0.153945 -2.637379 
0.772933 0.732932 -0.000000 -1.191384 -0.371540 1.570796 
3.271015 1.467653 -2.224381 0.350477 1.804859 -3.082053 
4.570773 1.920000 -2.095595 0.672877 1.570796 -0.486549 
6.280347 1.920000 -1.403698 1.512062 1.570796 0.192719 
3.364035 1.770000 -1.685975 -0.084481 -1.570796 0.093137 
5.384541 0.667340 -3.200000 1.072334 -0.478863 -1.570796 
0.771735 1.770000 -0.962169 1.250593 -1.570796 -0.690967 
0.137630 0.997281 -3.200000 -1.503237 0.061001 -1.570796 
0.704958 1.684975 -0.000000 -1.224751 1.186237 1.570796 
2.634394 1.077851 -1.765841 2.965796 0.495180 0.869677 
0.000000 1.100163 -0.781488 -1.570796 0.229341 0.803572 
4.100579 2.260000 -2.883883 0.562629 2.895083 -2.858260 
3.570185 0.918635 -0.000000 0.181714 -0.067682 1.570796 
0.150000 0.188008 -2.559520 1.570796 -4.378692 1.039455 
3.709874 1.770000 -2.711273 -0.262593 -1.570796 1.203850 
6.050202 1.361715 -0.150000 -1.467897 -2.295466 -1.570796 
0.398799 1.770000 -1.599940 1.442661 -1.570796 -0.000065 
3.947651 0.410614 -0.000000 0.367003 -0.898931 1.570796 
1.332535 1.920000 -0.172754 -0.916690 1.570796 1.401196 
0.628527 0.173828 -0.150000 1.324348 -4.403859 -1.570796 
3.763985 1.416305 -3.050000 -0.290461 -2.198574 1.570796 
4.986896 0.940127 -3.050000 -0.920278 -3.043747 1.570796 
1.836902 0.167054 -3.050000 0.702016 -4.415882 1.570796 
3.616806 0.412281 -2.016185 -2.185594 -2.301343 2.182349 
2.746829 0.317738 -3.050000 0.233390 -4.148433 1.570796 
0.495516 1.920000 -2.562349 -1.327560 1.570796 -0.944784 
2.900828 1.651652 -3.200000 -0.146856 1.131713 -1.570796 
1.367777 0.992919 -1.015854 -1.146289 0.117041 2.883419 
1.078654 1.770000 -1.924562 -0.944793 3.031357 -0.960981 
4.258633 2.260000 -2.764652 -0.750014 3.234151 0.828970 
0.000000 1.210885 -2.784370 -1.570796 0.410509 -1.162753 
0.901922 1.807722 -0.000000 -1.128066 1.387082 1.570796 
0.988326 0.150000 -1.580125 -3.019337 -2.879816 0.098133 
6.137270 0.594846 -0.150000 -1.512739 -3.656591 -1.570796 
5.026549 1.920000 -1.481401 0.896605 1.570796 0.116435 
4.668424 1.770000 -1.926957 -0.756260 -1.570796 0.354195 
3.123904 1.920000 -0.143131 -0.037353 1.570796 1.430277 
4.978646 1.920000 -1.203849 0.873091 1.570796 0.388920 
1.572876 1.920000 -1.578225 -0.798713 1.570796 0.021378 
1.819680 0.860790 -3.200000 -0.677563 -0.162331 -1.570796 
1.709271 1.509173 -0.150000 0.767748 -2.033741 -1.570796 
4.572605 1.201766 -1.014463 -1.122455 0.859548 2.890285 
5.389163 1.640913 -1.591560 -3.089323 2.861022 -0.044277 
2.665692 1.908664 -0.000000 -0.262278 1.552247 1.570796 
2.760933 1.657477 -1.154048 -2.167317 2.479738 2.201268 
1.196783 1.884798 -0.000000 -0.983327 1.513197 1.570796 
4.734574 0.150000 -2.212169 -0.102203 -3.079214 -0.742233 
2.020561 1.920000 -2.099574 -0.578956 1.570796 -0.490456 
1.926572 0.945675 -0.000000 -0.625092 -0.023440 1.570796 
2.909474 1.507454 -2.112488 1.523488 2.300237 2.687271 
0.150000 1.540306 -3.039510 1.570796 -1.978483 1.559433 
4.641071 1.438029 -2.205134 -0.784499 1.699563 -2.987072 
5.117822 2.007907 -0.683997 -3.003693 -1.390692 0.722651 
6.250000 1.249273 -1.683264 -1.570796 -2.495041 0.090201 
6.250000 0.498194 -0.606750 -1.570796 -3.828139 -1.075995 
4.691797 0.961573 -3.200000 0.732284 0.002574 -1.570796 
0.315413 1.920000 -0.321904 -1.415968 1.570796 1.254768 
4.390375 0.669439 -1.123483 -2.021990 -1.033030 2.352146 
5.159573 1.719422 -1.083936 1.774874 2.699945 2.547391 
1.749993 1.394871 -0.992648 0.740412 1.546127 2.998003 
6.400000 1.717710 -0.345211 1.570796 1.239799 1.231887 
6.250000 1.459750 -2.718236 -1.570796 -2.121462 1.211394 
1.751462 1.769502 -1.030773 -0.794255 3.401323 -2.984774 
2.682328 1.131846 -1.880829 2.714464 0.722031 1.472628 
4.829537 1.782835 -3.200000 0.799897 1.346361 -1.570796 
2.583023 1.669560 -0.150000 0.317752 -1.749068 -1.570796 
4.644523 1.770000 -2.845573 -0.743951 -1.570796 1.349339 
3.410287 0.317776 -0.150000 -0.108301 -4.148365 -1.570796 
1.295878 1.931496 -2.336240 3.089006 -2.684992 0.397225 
6.400001 1.494379 -0.358502 1.570796 0.874376 1.218838 
5.609288 0.000000 -0.020581 1.536383 -2.001837 1.139754 
4.203889 0.744149 -1.790690 -2.942492 -0.767399 -0.941248 
2.738441 0.054187 -3.200000 -0.226567 -1.482133 -1.570796 
3.569567 2.260000 -0.565268 -2.371090 2.908256 1.420277 
0.150000 0.405230 -0.694727 1.570796 -3.993140 -0.980689 
1.953538 1.920000 -1.760516 -0.611856 1.570796 -0.157586 
0.781981 0.922497 -0.000000 -1.186943 -0.061364 1.570796 
2.528255 1.770000 -0.373289 0.345959 -1.570796 -1.328906 
4.085268 2.124256 -1.212625 -0.625900 0.685818 3.028650 
4.747983 1.093562 -1.010067 0.272784 0.561184 -3.093368 
3.275945 0.059627 -0.000000 0.037280 -1.473231 1.570796 
3.573051 1.920000 -2.261572 0.183121 1.570796 -0.649497 
0.374788 0.248731 -3.200000 -1.386823 -1.163812 -1.570796 
5.269076 0.263198 -2.014798 2.315448 -2.477317 -2.047478 
5.453009 1.770000 -2.786312 -1.160334 -1.570796 1.285142 
6.250000 1.237538 -1.354798 -1.570796 -2.515868 -0.265630 
0.362772 1.920000 -2.834900 -1.392721 1.570796 -1.212360 
2.152065 1.266656 -1.894425 2.725114 1.090236 -1.453297 
3.586584 1.972073 -2.482271 3.034457 -2.360850 0.603910 
6.400000 0.315135 -1.829197 1.570796 -1.055157 -0.225013 
2.639237 1.626245 -1.419051 2.940393 2.799389 -0.948892 
0.912183 1.595371 -3.200000 -1.123030 1.039623 -1.570796 
4.137031 1.770000 -1.852476 -0.482585 -1.570796 0.273509 
0.707466 0.247007 -0.000000 -1.223520 -1.166632 1.570796 
2.609125 2.202718 -2.851486 1.302779 1.909441 -2.812506 
3.071815 0.635435 -0.000000 -0.062922 -0.531067 1.570796 
3.945401 0.621478 -0.000000 0.365898 -0.553905 1.570796 
0.150000 1.168216 -0.506050 1.570796 -2.638908 -1.185084 
1.273581 1.261027 -1.107587 1.711673 1.264809 -2.582030 
5.476630 0.168682 -3.200000 1.117538 -1.294791 -1.570796 
4.175429 0.710576 -3.200000 0.478813 -0.408119 -1.570796 
2.620493 1.920000 -0.707643 -0.284465 1.570796 0.876070 
2.993454 1.209891 -1.044534 1.083134 1.049974 -2.912623 
3.584551 2.103328 -2.474572 3.049378 0.266835 0.547406 
1.728227 0.282257 -2.214107 0.632895 -2.409575 -3.031331 
3.555262 1.770000 -1.167190 -0.182965 -1.570796 -0.468866 
4.410654 1.111137 -3.200000 0.594278 0.247298 -1.570796 
0.252286 0.948678 -3.050000 1.518118 -3.028570 1.570796 
2.174309 1.219217 -1.469097 -3.011435 1.089159 -0.686463 
6.250000 0.335767 -2.097776 -1.570796 -4.116432 0.539244 
5.914807 2.241510 -2.119938 -2.310716 3.033214 -2.055569 
2.361765 1.770000 -2.205111 0.431704 -1.570796 0.655521 
5.056285 1.920000 -0.264925 0.911202 1.570796 1.310706 
6.400000 0.041889 -3.031510 1.570796 -1.502255 -1.405382 
6.391360 0.759119 -3.200000 1.566556 -0.328691 -1.570796 
1.382728 0.684709 -2.190666 -1.072464 -0.978755 -2.915664 
5.432748 1.920000 -1.244890 1.095998 1.570796 0.348628 
3.758608 0.501541 -1.788456 -2.929093 -1.926300 0.988265 
0.376607 1.770000 -2.812313 1.454091 -1.570796 1.313308 
2.639190 0.076884 -3.200000 -0.275287 -1.444995 -1.570796 
2.736367 1.770000 -1.706144 0.238778 -1.570796 0.114987 
1.421186 1.920000 -0.039011 -0.873173 1.570796 1.532497 
5.267617 0.304449 -3.050000 -1.064854 -4.172020 1.570796 
2.098672 2.193064 -0.506303 2.211686 2.063332 -2.155738 
5.636799 1.663121 -0.000000 1.196161 1.150479 1.570796 
3.464643 0.346851 -0.150000 -0.136295 -4.096758 -1.570796 
1.850341 1.190064 -0.000000 -0.662513 0.376443 1.570796 
5.182111 1.896228 -0.000000 0.972967 1.531899 1.570796 
2.469995 1.994856 -1.294232 0.436069 -1.611700 -3.078751 
1.451289 1.284386 -0.991794 -0.734035 1.153295 3.002195 
1.798608 0.746806 -2.157444 -1.041504 -0.895782 2.922993 
4.514956 1.277538 -2.157250 -1.406987 1.128931 -2.750708 
3.670224 1.920000 -0.091185 0.230821 1.570796 1.481276 
5.443011 1.920000 -2.850477 1.101035 1.570796 -1.227653 
2.960158 1.707025 -1.059619 1.257720 3.138788 -2.833527 
1.969022 1.025338 -2.062308 -1.935051 0.274534 2.424184 
0.000000 1.130611 -0.214143 -1.570796 0.279161 1.360562 
5.334552 1.925527 -2.729789 1.948378 -3.292800 2.420553 
4.340962 1.390696 -1.972410 2.407035 1.809649 1.952817 
2.631962 0.257854 -1.444395 2.978538 -2.950235 -0.815981 
2.154926 1.920000 -1.293764 -0.512999 1.570796 0.300647 
3.026855 1.181564 -0.998834 -0.854653 0.787733 2.967443 
6.356588 0.000000 -2.906143 0.661582 -2.480010 -0.932892 
0.478591 1.841650 -0.000000 -1.335869 1.442597 1.570796 
3.293793 1.770000 -2.111105 -0.048305 -1.570796 0.553685 
2.858318 2.257099 -2.202809 2.855062 2.830677 1.228446 
0.347908 1.920000 -2.596709 -1.400018 1.570796 -0.978517 
3.341981 1.789550 -0.000000 0.069695 1.357348 1.570796 
3.570889 0.703011 -3.050000 -0.191013 -3.464606 1.570796 
1.060023 1.770000 -2.696735 1.102121 -1.570796 1.188102 
4.232986 2.211057 -1.237825 1.451408 2.050716 -2.727416 
4.691420 0.207621 -0.980232 -0.535927 -2.674935 3.059273 
5.471623 1.069110 -3.050000 -1.169920 -2.814814 1.570796 
3.716167 0.000000 -0.016500 0.590840 -1.916362 1.225230 
0.000000 0.188393 -1.267968 -1.570796 -1.262539 0.325972 
5.424419 1.920000 -1.810669 1.091909 1.570796 -0.206824 
5.528308 1.770000 -2.994784 -1.199114 -1.570796 1.510981 
1.310074 0.704518 -3.050000 0.973341 -3.461932 1.570796 
6.199892 0.959373 -0.000000 1.472569 -0.001026 1.570796 
5.389970 0.996334 -1.545892 -3.093560 0.152662 -0.283754 
1.690637 1.770000 -1.159375 0.777345 -1.570796 -0.477332 
0.499503 1.237514 -0.000000 -1.325604 0.454081 1.570796 
0.000000 1.241327 -0.707072 -1.570796 0.460320 0.876630 
1.864131 1.920000 -2.634575 -0.655743 1.570796 -1.015691 
6.400001 0.993380 -0.850225 1.570796 0.054619 0.736090 
6.400001 1.690234 -1.140749 1.570796 1.194842 0.450868 
4.374547 1.251191 -1.192160 2.230925 1.223508 -2.138593 
4.737943 0.340356 -0.150000 -0.792064 -4.108287 -1.570796 
2.042766 0.646060 -1.991128 -2.321703 -1.319077 2.050970 
1.017271 1.075436 -1.837141 -2.876423 0.410411 -1.170568 
3.789587 0.786571 -1.567611 -3.091546 -0.728712 -0.169858 
4.479237 1.770000 -0.785743 -0.658826 -1.570796 -0.882091 
2.543094 1.920000 -0.652996 -0.322458 1.570796 0.929719 
1.795462 0.720911 -0.150000 0.723359 -3.432835 -1.570796 
2.451522 0.287266 -0.150000 0.385477 -4.202517 -1.570796 
5.385204 1.920000 -1.717274 1.072660 1.570796 -0.115134 
3.834951 2.251999 -2.868846 -1.028144 2.744217 -2.920631 
3.591226 0.539631 -1.157335 -2.051478 -1.766261 -2.321177 
0.150000 1.658336 -1.750172 1.570796 -1.768990 0.162682 
4.451985 1.770000 -2.028904 -0.644791 -1.570796 0.464635 
1.575381 0.355465 -3.050000 0.836704 -4.081470 1.570796 
5.738894 1.920000 -2.641169 1.246277 1.570796 -1.022165 
4.378623 1.341149 -0.000000 0.578555 0.623654 1.570796 
4.135561 1.876221 -0.000000 0.459242 1.499163 1.570796 
5.713517 1.920000 -0.159195 1.233820 1.570796 1.414507 
3.370876 1.179191 -1.036346 -0.896072 0.921007 -2.955553 
2.831680 1.770000 -2.787269 0.189690 -1.570796 1.286178 
4.346303 1.109227 -0.150000 -0.590364 -2.743608 -1.570796 
2.130774 1.473794 -1.342818 -2.783155 2.158812 -1.348641 
5.491556 1.265040 -3.200000 1.124865 0.499120 -1.570796 
6.400001 0.357565 -2.595855 1.570796 -0.985732 -0.977678 
1.147355 2.225914 -1.039575 -2.549498 2.721019 1.758472 
2.969164 1.191078 -0.000000 -0.113311 0.378102 1.570797 
2.735235 1.456395 -2.020945 -2.294135 1.764845 -2.077867 
6.319546 0.000000 -2.797426 -0.114228 -3.255821 -0.234727 
1.312871 1.396165 -2.156097 -1.417281 1.550692 -2.745018 
3.140388 1.920000 -0.104462 -0.029262 1.570796 1.468241 
3.786635 1.920000 -0.303458 0.287964 1.570796 1.272878 
5.879540 1.770000 -0.194247 -1.380004 -1.570796 -1.522863 
3.541890 1.061135 -2.083842 -1.792796 0.424931 2.537087 
2.804364 0.293908 -0.000000 -0.194207 -1.089890 1.570796 
3.672113 2.105026 -0.426991 -2.042592 0.254523 2.323616 
0.000000 1.499510 -2.262801 -1.570796 0.882771 -0.650703 
0.931742 0.018964 -3.050000 1.168187 -4.678730 1.570796 
4.612048 1.770000 -1.948965 -0.727226 -1.570796 0.378036 
5.349151 1.920000 -1.165364 0.962173 -3.255180 0.989595 
2.214368 0.837545 -1.472680 3.032621 -0.435358 0.628416 
4.425882 2.121119 -1.053753 2.652977 0.527158 -1.580757 
0.150000 0.067282 -1.904516 1.570796 -4.592969 0.329885 
0.002161 1.920000 -1.852635 -1.569736 1.570796 -0.248024 
4.953279 1.229273 -3.050000 -0.902965 -2.530539 1.570796 
0.320915 1.920000 -2.525856 -1.413268 1.570796 -0.908957 
5.751162 1.770000 -2.451138 -1.313887 -1.570796 0.922045 
0.304468 2.124487 -0.746921 -3.086885 0.584211 0.330646 
2.191547 1.719481 -0.000000 -0.495023 1.242699 1.570796 
2.227933 0.943993 -0.150000 0.500629 -3.036885 -1.570796 
5.604345 1.770000 -0.263598 -1.238274 -1.570796 -1.447734 
1.344761 1.770000 -0.339277 0.955476 -1.570796 -1.365751 
3.050594 1.920000 -3.034414 -0.073340 1.570796 -1.408232 
1.966135 2.106748 -2.159956 -2.702704 0.283731 1.495345 
3.737049 1.920000 -1.651601 0.263623 1.570796 -0.050659 
0.941624 1.920000 -2.341136 -1.108578 1.570796 -0.727609 
1.369835 1.920000 -1.264197 -0.898380 1.570796 0.329674 
0.258985 0.327129 -0.150000 1.514668 -4.131762 -1.570796 
1.250096 1.161603 -0.150000 1.004230 -2.650646 -1.570796 
1.554772 0.223776 -3.200000 -0.807600 -1.204644 -1.570796 
3.824799 1.712272 -3.200000 0.306698 1.230902 -1.570796 
1.980759 0.474718 -2.100965 1.879498 -1.725331 -2.472832 
5.649766 0.793837 -0.150000 -1.261667 -3.303400 -1.570796 
3.768417 1.068770 -1.445445 -2.980540 0.457024 -0.810490 
3.485934 1.304500 -1.084752 -1.499415 1.447484 -2.701744 
5.377650 1.414833 -1.482510 -3.028956 1.911083 -0.616127 
4.725075 1.770000 -1.952474 -0.785437 -1.570796 0.381837 
4.209274 2.249898 -2.035004 -1.536039 3.201189 -2.679008 
2.154619 1.004432 -1.889804 2.737720 0.157940 -1.430487 
2.505848 0.102844 -0.000000 -0.340741 -1.402518 1.570796 
1.807884 1.733211 -0.150000 0.716961 -1.636093 -1.570796 
0.150000 0.593645 -0.978366 1.570796 -3.658721 -0.673421 
2.410234 0.851479 -3.050000 0.406741 -3.201089 1.570796 
1.807274 0.927397 -3.050000 0.717275 -3.066341 1.570796 
1.003359 1.403426 -1.406819 -2.945143 1.576564 0.953581 
2.013257 1.034001 -3.200000 -0.582541 0.121083 -1.570796 
4.388403 2.222242 -2.569070 -2.850839 2.647485 1.240923 
1.612299 1.920000 -1.959050 -0.779361 1.570796 -0.352497 
6.092949 0.157993 -0.150000 -1.489913 -4.431966 -1.570796 
3.859608 0.824191 -0.150000 -0.339708 -3.249523 -1.570796 
0.531338 0.271431 -3.200000 -1.309976 -1.126669 -1.570797 
0.870727 2.239461 -2.894039 0.440630 2.531775 -3.077546 
6.400000 0.692984 -1.154749 1.570796 -0.436902 0.437124 
2.882933 0.508361 -1.060654 -1.565105 -1.605717 2.662278 
2.662060 1.543352 -0.150000 0.277047 -1.973075 -1.570796 
6.400000 1.543593 -1.524379 1.570796 0.954902 0.074241 
4.617638 0.517342 -3.200000 0.695881 -0.724298 -1.570796 
6.250000 1.471643 -0.561229 -1.570796 -2.100353 -1.125308 
0.000000 0.203146 -1.187292 -1.570796 -1.238400 0.405175 
0.412979 1.770000 -2.920943 1.435358 -1.570796 1.430988 
0.150000 1.415473 -0.696404 1.570796 -2.200050 -0.978873 
0.000000 1.447918 -2.364263 -1.570796 0.798355 -0.750314 
4.799099 1.502864 -2.188998 0.004711 2.280972 3.088457 
1.275295 0.167966 -0.000000 -0.944788 -1.295963 1.570796 
3.487908 1.079510 -0.000000 0.141326 0.195549 1.570796 
6.250000 1.439332 -2.410217 -1.570796 -2.157703 0.877715 
1.708596 1.865327 -0.000000 -0.732092 1.481339 1.570796 
3.969593 0.639274 -3.200000 0.377773 -0.524786 -1.570796 
4.727983 1.920000 -1.210635 0.750047 1.570796 0.382258 
5.076873 1.660899 -0.150000 -0.966618 -1.764441 -1.570796 
0.882923 0.708157 -3.050000 1.193330 -3.455472 1.570796 
4.701624 0.153889 -0.977293 -0.485559 -2.865968 3.073785 
6.250000 1.022751 -1.555024 -1.570796 -2.897096 -0.048723 
6.134507 1.277812 -0.150000 -1.511315 -2.444387 -1.570796 
4.246074 0.070349 -3.200000 0.513490 -1.455687 -1.570796 
0.150000 1.565284 -2.949191 1.570796 -1.934149 1.461589 
3.906965 0.618170 -3.200000 0.347031 -0.559318 -1.570796 
3.764956 2.260000 -2.834249 -1.361612 2.895007 -2.572418 
0.000000 0.700067 -0.876728 -1.570796 -0.425315 0.710070 
5.003881 1.920000 -0.383036 0.885478 1.570796 1.194752 
6.400000 1.323533 -1.749198 1.570796 0.594831 -0.146475 
4.764549 1.920000 -0.175813 0.767996 1.570796 1.398192 
5.820421 0.522847 -3.050000 -1.349557 -3.784383 1.570796 
5.471775 0.436855 -0.150000 -1.169999 -3.937010 -1.570796 
2.183024 1.146812 -3.200000 -0.499207 0.305670 -1.570796 
0.000000 0.201786 -1.403243 -1.570796 -1.240625 0.193166 
2.636899 1.357882 -1.877646 -2.779538 1.414571 -1.370503 
5.138150 1.731882 -0.000000 0.951387 1.262990 1.570796 
0.525403 1.920000 -0.000117 -1.312890 1.570796 1.570681 
0.150000 1.025207 -0.783584 1.570796 -2.892737 -0.884429 
6.400000 1.054315 -3.132377 1.570796 0.154324 -1.504407 
0.980851 0.457491 -3.050000 1.142896 -3.900382 1.570796 
1.541789 1.417382 -3.200000 -0.813972 0.748389 -1.570796 
2.314537 0.437365 -0.000000 -0.434651 -0.855159 1.570796 
5.886064 0.383189 -3.050000 -1.383364 -4.032262 1.570796 
2.113261 1.986212 -1.108339 2.104671 -2.077825 2.263120 
3.241135 1.920000 -0.030764 0.020192 1.570796 1.540594 
0.446796 0.753674 -0.150000 1.417942 -3.374684 -1.570796 
0.150000 1.377323 -0.313814 1.570796 -2.267763 -1.393336 
5.296650 0.624460 -1.281228 -2.604244 -1.409839 -1.671579 
1.473240 1.770000 -1.126496 0.889307 -1.570796 -0.512951 
4.076176 1.920000 -2.918106 0.430092 1.570796 -1.294047 
1.227519 0.151721 -2.108931 -1.838586 -2.873640 -2.512179 
5.426191 1.739085 -1.625773 3.090991 2.769885 -0.127267 
0.150000 1.557577 -0.216152 1.570796 -1.947829 -1.499134 
2.602535 1.608263 -0.000000 -0.293280 1.060718 1.570796 
5.641422 1.770000 -1.360401 -1.257369 -1.570796 -0.259559 
4.520577 1.751696 -0.150000 -0.680117 -1.603284 -1.570796 
5.131240 1.920000 -2.312822 -2.920100 -2.879772 0.543050 
6.400000 0.513254 -3.061370 1.570796 -0.730987 -1.434696 
6.400000 0.725524 -0.534458 1.570796 -0.383660 1.046093 
3.046384 0.191698 -2.206452 -0.758276 -2.731568 -2.993575 
0.000000 0.460224 -1.604995 -1.570796 -0.817757 -0.004904 
4.696407 1.274202 -1.018888 0.543248 1.320190 -3.047110 
0.503365 1.770000 -1.762955 1.388808 -1.570796 0.176530 
1.578158 0.835888 -0.000000 -0.796120 -0.203078 1.570796 
1.782438 1.207158 -0.000000 -0.695844 0.404412 1.570796 
3.348917 1.616570 -0.000000 0.073099 1.074311 1.570796 
1.901102 0.022255 -3.200000 -0.637595 -1.534382 -1.570796 
5.915267 1.934665 -0.520401 -2.314057 -3.109779 -2.052205 
0.412765 0.931750 -0.150000 1.435468 -3.058614 -1.570796 
3.492249 0.329814 -0.150000 -0.150512 -4.126998 -1.570796 
2.760061 1.920000 -1.312873 -0.215954 1.570796 0.281886 
3.574801 0.871607 -2.056730 -1.965353 -0.371395 2.394936 
5.135308 1.770000 -2.039580 -0.996713 -1.570796 0.476201 
3.452334 1.672942 -3.200000 0.123864 1.166549 -1.570796 
6.325450 0.069911 -0.000000 1.534202 -1.456403 1.570796 
5.971214 0.085872 -0.000000 1.360317 -1.430287 1.570796 
0.351374 1.770000 -2.641609 1.467086 -1.570796 1.128384 
4.679396 0.597490 -3.200000 0.726197 -0.593155 -1.570796 
4.734977 1.770000 -0.265589 -0.790537 -1.570796 -1.445578 
4.962070 1.255760 -3.050000 -0.907493 -2.483526 1.570796 
2.784931 1.920000 -2.761198 -0.203747 1.570796 -1.140003 
1.021459 0.423516 -1.851678 -2.855747 -1.907349 -1.242331 
0.150000 0.807952 -0.476420 1.570796 -3.278345 -1.217183 
3.424333 1.132230 -3.200000 0.110119 0.281811 -1.570796 
2.852933 0.179941 -1.078732 -1.713191 -2.773346 2.573045 
5.346342 1.920000 -2.654011 1.053583 1.570796 -1.034773 
3.175880 1.920000 -1.749788 -0.011840 1.570796 -0.147054 
0.000000 0.746913 -2.639953 -1.570797 -0.348662 -1.020972 
4.493045 2.168809 -0.725508 3.071352 1.334969 0.464090 
5.289618 1.770000 -1.923147 -1.076185 -1.570796 0.350068 
0.946671 1.770000 -0.920352 1.160499 -1.570796 -0.736268 
2.241033 0.640786 -0.000000 -0.470732 -0.522313 1.570796 
0.000000 1.618136 -0.433874 -1.570796 1.076872 1.144841 
2.609777 1.920000 -0.698736 -0.289725 1.570796 0.884814 
5.344247 0.983546 -1.908572 2.686522 0.083673 -1.523126 
2.489896 2.150812 -2.888976 0.560045 1.030110 -3.046016 
2.814062 1.478511 -2.048143 2.023755 2.178632 2.349897 
2.163790 0.997025 -3.200000 -0.508648 0.060583 -1.570796 
1.837509 0.438868 -2.141673 -1.245489 -2.189659 2.840303 
1.302264 1.232275 -1.049005 -1.469682 0.968002 2.719778 
3.957504 1.920000 -1.579528 0.371839 1.570796 0.020099 
0.646069 0.000000 -0.007453 -1.101225 -1.726888 1.414705 
0.292610 0.916905 -0.150000 1.497350 -3.084963 -1.570796 
0.000000 0.948156 -0.914889 -1.570796 -0.019381 0.672606 
1.153874 1.204385 -1.985787 2.339334 1.026835 2.022956 
0.000000 0.946493 -2.346186 -1.570796 -0.022100 -0.732567 
5.459792 1.028216 -3.050000 -1.163827 -2.887397 1.570796 
0.150000 1.248294 -0.402869 1.570796 -2.496777 -1.296861 
3.649410 2.093427 -2.634409 2.573363 0.068591 1.720499 
2.962751 1.920000 -1.256350 -0.116459 1.570796 0.337378 
4.369836 1.438077 -0.000000 0.574242 0.782252 1.570796 
5.727649 1.920000 -1.145055 1.240757 1.570796 0.446641 
3.712157 1.575505 -1.309218 -2.685550 2.586161 -1.524819 
0.578722 0.802367 -3.200000 -1.286717 -0.257926 -1.570796 
4.514832 1.549889 -3.050000 -0.677159 -1.961474 1.570796 
1.780625 1.341750 -1.000245 0.891608 1.357283 2.960511 
2.580090 1.206608 -1.708082 -3.059983 0.876768 -0.533444 
1.866411 0.907552 -0.150000 0.686819 -3.101564 -1.570796 
3.679695 0.343081 -3.200000 0.235469 -1.009431 -1.570796 
3.989238 0.111044 -3.050000 -0.406470 -4.515295 1.570796 
3.041858 0.232810 -2.167310 0.829288 -3.055462 2.974720 
2.453110 1.770000 -2.348761 0.384660 -1.570796 0.811138 
1.453588 1.563471 -0.000000 -0.857268 0.987427 1.570796 
1.293360 0.640418 -1.054371 -1.513635 -1.136213 2.693293 
5.993631 2.249510 -2.707745 2.452051 2.702097 -1.917137 
5.370861 0.614642 -1.860412 2.817902 -1.227890 -1.285404 
2.845922 0.137933 -0.000000 -0.173808 -1.345104 1.570796 
0.000000 0.960860 -2.626715 -1.570796 0.001408 -1.007975 
0.385554 2.069759 -0.878380 3.041999 -0.405222 0.575304 
3.613546 1.315532 -2.019332 -2.168499 1.493842 2.198849 
3.647440 2.243123 -0.451486 -2.196280 2.593921 2.171047 
3.065841 0.990532 -1.026502 0.703534 0.128288 -3.007183 
2.176708 0.346172 -0.000000 -0.502308 -1.004374 1.570796 
5.781838 0.894505 -0.150000 -1.329686 -3.124722 -1.570796 
3.931738 1.770000 -2.887164 -0.376856 -1.570796 1.394395 
5.735602 1.770000 -0.976507 -1.305874 -1.570796 -0.675435 
0.000000 0.173400 -2.312395 -1.570796 -1.287071 -0.699392 
1.129912 0.605466 -1.238949 2.464956 -1.489648 -1.893267 
1.542897 1.389123 -3.200000 -0.813429 0.702152 -1.570796 
4.872143 1.770000 -1.374046 -0.861179 -1.570796 -0.244778 
1.704961 1.770000 -0.582955 0.769968 -1.570796 -1.101773 
5.479631 1.770000 -1.458703 -1.174045 -1.570796 -0.153068 
6.148844 1.770000 -1.668232 -1.518699 -1.570796 0.073916 
0.382575 1.920000 -1.358822 -1.383000 1.570796 0.236776 
2.713708 0.876923 -0.000000 -0.238708 -0.135934 1.570796 
5.364628 1.920000 -2.636744 1.062559 1.570796 -1.017821 
5.426858 0.348173 -1.661449 3.094284 -2.175235 -0.303365 
0.150000 0.347519 -0.515819 1.570796 -4.095572 -1.174502 
2.519798 0.591990 -0.000000 -0.333894 -0.602155 1.570796 
5.857720 1.920000 -0.903401 1.304605 1.570796 0.683885 
1.122886 1.075537 -1.250636 2.501798 0.485451 -1.831988 
5.099134 0.916802 -2.150152 1.476579 -0.153592 -2.715620 
2.535302 2.260000 -2.826243 -0.585880 3.222299 0.830011 
2.124249 0.641720 -1.257879 2.587760 -1.131592 1.688769 
6.303356 0.317216 -0.000000 1.523356 -1.051752 1.570796 
3.003162 1.241457 -0.000000 -0.096623 0.460534 1.570796 
4.344764 0.488762 -3.050000 -0.589571 -3.844880 1.570796 
1.926308 1.411586 -1.109024 -1.711102 1.897427 -2.574476 
4.020950 0.784815 -3.200000 0.402983 -0.286646 -1.570796 
6.250000 1.556711 -0.848380 -1.570796 -1.949365 -0.814236 
0.553571 0.101749 -3.200000 -1.299063 -1.404310 -1.570796 
3.523800 1.679184 -1.107517 -1.697954 3.021798 -2.582380 
0.150000 1.047369 -0.246551 1.570796 -2.853403 -1.466202 
5.578020 2.139460 -1.979195 0.161395 0.990158 -3.088685 
3.347268 0.309116 -3.050000 -0.075845 -4.163735 1.570796 
3.852527 1.770000 -2.270170 -0.336061 -1.570796 0.726001 
3.040498 1.770000 -1.124748 0.082146 -1.570796 -0.514844 
0.384798 1.770000 -0.263577 1.449872 -1.570796 -1.447758 
0.124458 0.000000 -0.372357 1.035837 -4.177428 -0.767286 
4.547815 0.680325 -0.000000 0.661607 -0.457616 1.570796 
5.568823 2.016759 -1.220613 0.228773 -1.466308 3.087262 
6.400000 0.432733 -0.769385 1.570796 -0.862737 0.815455 
3.728405 0.915106 -1.937241 2.608314 -0.159631 -1.664638 
5.407485 1.920000 -2.727450 1.083597 1.570796 -1.106871 
0.990534 1.588855 -1.458530 -3.008435 2.235787 0.698345 
1.741590 0.558414 -3.200000 -0.715895 -0.657093 -1.570796 
2.593189 0.403689 -1.447832 -2.995346 -1.977865 0.751134 
6.400000 0.017511 -2.705440 1.570796 -1.542143 -1.085263 
1.118182 1.313809 -1.945543 2.526477 1.486589 1.811948 
5.607487 2.255822 -1.979301 -0.054893 3.319744 -3.087897 
5.379944 1.467892 -0.000000 1.070078 0.831038 1.570796 
2.678030 1.920000 -2.825829 -0.256221 1.570796 -1.203454 
1.863277 1.299787 -1.071130 -1.380618 1.427679 -2.773165 
3.561595 0.455384 -1.130239 -1.896117 -2.120249 -2.463243 
1.011870 0.260104 -1.549980 3.083899 -2.940806 -0.262286 
6.084708 1.920000 -2.607723 1.416028 1.570796 -0.989330 
1.199511 1.770000 -2.254316 1.030282 -1.570796 0.708825 
1.147342 1.098820 -1.168158 -2.234407 0.493565 2.131616 
6.400000 0.439213 -1.421789 1.570796 -0.852135 0.174958 
1.560733 1.920000 -1.048840 -0.804673 1.570796 0.541101 
1.945294 1.683877 -3.200000 -0.615902 1.184442 -1.570796 
3.108403 0.098446 -0.150000 0.047174 -4.537655 -1.570796 
3.211478 1.349022 -1.011189 -0.060177 1.634562 -3.087475 
3.321015 1.770000 -0.285589 -0.062324 -1.570796 -1.423911 
0.824801 1.770000 -2.383714 1.223263 -1.570796 0.849004 
4.048058 1.670375 -3.200000 0.416290 1.162349 -1.570796 
5.344842 1.920000 -0.614466 1.052847 1.570796 0.967546 
2.469247 0.337333 -0.000000 -0.358707 -1.018836 1.570796 
1.068743 1.920000 -0.273115 -1.046178 1.570796 1.302666 
6.250000 1.322829 -1.383204 -1.570796 -2.364486 -0.234857 
5.414026 2.201444 -2.021681 1.365012 2.231091 -2.776861 
4.842144 1.735095 -0.973500 0.208081 2.755677 3.092496 
6.329433 0.705836 -3.200000 1.536157 -0.415874 -1.570796 
1.025288 0.315658 -0.150000 1.120010 -4.152122 -1.570796 
6.250000 0.571833 -2.654232 -1.570796 -3.697436 1.142057 
6.340990 1.920000 -3.056303 1.541830 1.570796 -1.429722 
3.143249 1.236094 -2.226770 -0.280174 0.981600 -3.093851 
4.240591 1.052540 -1.790717 2.933300 0.388825 1.000127 
6.250000 0.564598 -0.801863 -1.570796 -3.710278 -0.864628 
2.163358 1.770000 -0.276470 0.533886 -1.570796 -1.433790 
0.911054 1.960864 -2.805817 -0.815151 -2.585275 2.978675 
4.575500 0.000000 -0.093848 0.496567 -3.536337 -0.394745 
6.250000 1.765395 -2.771467 -1.570796 -1.578969 1.269060 
3.966146 1.770000 -2.540613 -0.394577 -1.570796 1.018974 
1.339911 1.920000 -2.638169 -0.913069 1.570796 -1.019220 
2.089053 0.896571 -3.200000 -0.545335 -0.103786 -1.570796 
4.068374 0.746607 -0.000000 0.426262 -0.349162 1.570796 
5.550008 1.900737 -3.200000 1.153558 1.539278 -1.570796 
5.808589 2.040148 -0.434608 -1.531008 -0.998074 -2.681946 
6.256516 1.920000 -3.014378 1.500364 1.570796 -1.388563 
0.000000 1.258913 -2.513312 -1.570796 0.489094 -0.896642 
2.602264 2.012397 -0.430926 -1.484576 -1.553623 -2.708981 
3.165160 1.920000 -0.812582 -0.017102 1.570796 0.773046 
4.936374 0.867503 -2.211760 0.673111 -0.328849 -3.019744 
1.176133 0.564241 -0.150000 1.042322 -3.710909 -1.570796 
0.628056 2.143423 -1.186731 1.262051 1.069526 2.838541 
1.565469 1.770000 -1.186427 0.841808 -1.570796 -0.448027 
6.400000 1.167585 -0.178102 1.570796 0.339660 1.395946 
6.400000 1.265833 -2.021083 1.570796 0.500419 -0.413397 
1.407344 1.920000 -2.122004 -0.879968 1.570796 -0.512476 
6.027464 1.562448 -0.000000 1.387928 0.985753 1.570796 
6.400000 1.828659 -2.848043 1.570796 1.421340 -1.225263 
0.832662 2.190236 -2.895847 0.203490 1.697981 -3.088816 
0.941680 1.770000 -2.671573 1.163069 -1.570796 1.160843 
2.482529 1.920000 -2.150245 -0.352188 1.570796 -0.540202 
4.573358 0.260413 -1.052306 1.188507 -2.939477 -2.871870 
2.054419 1.920000 -3.155076 -0.562336 1.570796 -1.526692 
3.042187 1.920000 -0.726828 -0.077466 1.570796 0.857235 
0.410278 1.704666 -3.200000 -1.369402 1.218456 -1.570796 
3.705722 1.770000 -2.645585 -0.260455 -1.570796 1.132690 
0.150000 0.813913 -2.155125 1.570796 -3.267765 0.601371 
4.600970 0.216277 -2.155573 1.043718 -3.124909 2.913179 
6.180867 1.696274 -3.050000 -1.535192 -1.701654 1.570796 
4.089271 0.000000 -0.061162 1.448392 -2.851761 0.289830 
0.785192 1.920000 -2.058339 -1.185366 1.570796 -0.449973 
5.301448 0.330020 -0.150000 -1.082278 -4.126634 -1.570796 
1.977198 1.920000 -2.951379 -0.600242 1.570796 -1.326714 
0.169691 1.803361 -3.200000 -1.487500 1.379946 -1.570796 
5.770112 1.144120 -0.150000 -1.323646 -2.681677 -1.570796 
5.286921 2.124330 -2.681803 2.298028 0.687305 2.068352 
1.828639 1.770000 -0.887877 0.706272 -1.570796 -0.771449 
6.317317 1.448907 -3.200000 1.530209 0.799972 -1.570796 
3.899828 0.928534 -0.000000 0.343527 -0.051485 1.570796 
4.245310 0.328818 -1.397894 2.908550 -2.652038 -1.059846 
6.400001 0.336088 -2.074034 1.570796 -1.020873 -0.465382 
4.169583 0.417426 -0.150000 -0.499350 -3.971494 -1.570796 
2.521193 0.379729 -0.000000 -0.333209 -0.949465 1.570796 
0.000000 1.349860 -2.035074 -1.570796 0.637908 -0.427132 
5.085072 0.123778 -3.200000 0.925332 -1.368264 -1.570796 
1.019604 1.557920 -1.845238 -2.864908 2.125772 -1.210536 
3.902283 1.920000 -0.334641 0.344733 1.570796 1.242264 
0.150000 1.089569 -2.028649 1.570796 -2.778500 0.464359 
6.337382 0.000000 -2.491450 0.259341 -2.882252 -0.959085 
6.250000 0.234646 -2.371212 -1.570796 -4.295913 0.835460 
2.746391 0.314052 -1.219338 2.378555 -2.714081 -1.996094 
0.000000 0.589177 -1.668467 -1.570796 -0.606758 -0.067217 
0.000000 1.396025 -0.223986 -1.570796 0.713443 1.350898 
2.924827 0.735512 -1.079195 1.442976 -0.943252 -2.730892 
4.607866 0.655764 -1.040944 1.007553 -1.278315 -2.931450 
1.021272 1.920000 -0.930336 -1.069481 1.570796 0.657441 
0.150000 1.279367 -1.203300 1.570796 -2.441625 -0.429748 
3.108466 0.713931 -0.150000 0.047141 -3.445224 -1.570796 
5.740380 2.192464 -0.402171 -1.030364 2.051314 -2.920044 
6.021714 2.100933 -2.138873 2.627063 0.185186 1.626698 
1.037407 1.387181 -1.878489 -2.777029 1.518743 -1.374671 
5.836594 1.920000 -0.263590 1.294235 1.570796 1.312017 
1.338964 1.920000 -0.281041 -0.913534 1.570796 1.294885 
3.089385 1.186296 -3.200000 -0.054298 0.370277 -1.570796 
0.150000 0.095294 -2.852116 1.570796 -4.543250 1.356428 
5.041202 1.770000 -2.686680 -0.948247 -1.570796 1.177209 
6.250000 0.156818 -1.058055 -1.570796 -4.434051 -0.587093 
1.293615 0.282634 -3.200000 -0.935795 -1.108338 -1.570796 
4.303702 0.668384 -1.213462 -2.449819 -1.036766 1.907976 
5.720815 0.984521 -3.200000 1.237402 0.040123 -1.570796 
0.150000 1.554443 -2.843897 1.570796 -1.953390 1.347523 
0.150000 0.569315 -1.116732 1.570796 -3.701905 -0.523528 
0.652902 2.092643 -1.196006 1.079666 0.052923 2.906626 
0.150000 1.507781 -1.700476 1.570796 -2.036211 0.108846 
4.045659 1.770000 -2.963038 -0.435527 -1.570796 1.476590 
0.000000 1.050893 -0.472969 -1.570796 0.148723 1.106460 
5.321478 1.569196 -1.949775 2.574119 2.165839 -1.726509 
4.438622 1.754203 -2.115066 -1.783787 2.823603 -2.542464 
0.000000 1.102860 -2.215753 -1.570796 0.233754 -0.604514 
2.536445 0.000000 -3.175129 0.182967 -2.091693 -1.049899 
6.052629 1.920000 -2.127925 1.400281 1.570796 -0.518289 
5.294189 1.043805 -1.988727 2.439408 0.297953 -1.918784 
2.470399 1.920000 -0.424422 -0.358142 1.570796 1.154121 
6.400001 1.009233 -2.553893 1.570796 0.080558 -0.936482 
0.613587 1.920000 -0.469573 -1.269603 1.570796 1.109794 
3.722455 1.770000 -1.587831 -0.269072 -1.570796 -0.013182 
0.614376 2.260000 -2.803724 0.609189 3.252810 1.163336 
4.587768 1.569648 -2.191916 -1.047591 2.167520 -2.921831 
3.791244 1.645623 -1.814939 2.918519 2.437639 -1.060948 
5.661242 0.367680 -0.150000 -1.267577 -4.059790 -1.570796 
3.482035 1.506668 -2.160456 1.392170 1.943547 -2.766483 
4.795972 1.920000 -2.464724 0.783421 1.570796 -0.848941 
6.250000 0.754109 -0.786850 -1.570796 -3.373914 -0.880891 
4.189144 0.324501 -1.464139 -3.015306 -2.259400 0.670640 
2.030748 0.295298 -0.150000 0.602183 -4.188260 -1.570796 
0.150000 0.719698 -0.521801 1.570796 -3.434988 -1.168022 
1.001045 1.920000 -1.438007 -1.079410 1.570796 0.159037 
3.911111 0.988510 -0.000000 0.349066 0.046650 1.570797 
0.418137 1.275256 -0.000000 -1.365544 0.515836 1.570796 
3.825357 1.719414 -1.581205 3.086875 2.699948 0.092718 
0.821509 0.229318 -3.050000 1.224959 -4.305369 1.570796 
6.301568 0.000000 -2.042360 -0.490766 -3.632359 -0.656682 
5.233274 1.089892 -2.000289 -2.271941 0.545775 2.099002 
3.994573 2.260000 -1.246217 0.332640 3.225287 0.986230 
4.772460 1.327649 -3.200000 0.771879 0.601564 -1.570796 
0.782470 0.263875 -0.000000 -1.186702 -1.139033 1.570796 
4.224336 0.621266 -1.725465 3.018539 -1.423271 0.657944 
1.658261 1.124883 -2.190044 -0.305529 0.692789 3.093946 
1.987885 1.740848 -1.105001 1.914629 2.776119 2.443410 
0.140895 1.728032 -0.000000 -1.501635 1.256689 1.570796 
5.242225 1.770000 -1.437165 -1.051777 -1.570796 -0.176400 
5.103478 0.293163 -0.150000 -0.980320 -4.192051 -1.570796 
2.139529 1.538619 -1.917110 2.663230 2.057148 -1.565271 
3.453055 0.103918 -3.200000 0.124218 -1.400761 -1.570796 
1.842363 0.498037 -0.150000 0.699204 -3.828417 -1.570796 
2.253817 1.125291 -0.150000 0.487299 -2.715096 -1.570796 
1.509088 1.177401 -1.015729 0.476750 0.913459 -3.063675 
5.452749 0.150108 -3.050000 -1.160200 -4.445961 1.570796 
2.022897 0.909675 -2.062739 2.087501 -0.178910 -2.284133 
2.886316 2.221208 -0.700029 3.029445 2.222599 0.622814 
4.792033 0.785753 -3.050000 -0.819921 -3.317748 1.570796 
4.147081 1.920000 -1.980117 0.464898 1.570796 -0.373179 
5.912971 0.459453 -0.150000 -1.397221 -3.896901 -1.570796 
1.340789 1.770000 -1.244542 0.957522 -1.570796 -0.385071 
2.948866 0.772546 -2.175989 -1.239605 -0.666476 -2.843215 
0.150000 1.396994 -1.874717 1.570796 -2.232848 0.297603 
6.400000 1.862326 -0.484138 1.570796 1.476428 1.095495 
1.463823 1.519028 -2.210777 -0.672204 1.987533 -3.014919 
3.618405 1.990119 -2.080307 -2.377081 -1.691967 1.991562 
1.304088 1.920000 -0.012030 -0.930654 1.570796 1.558986 
3.997946 0.956407 -3.200000 0.391691 -0.005880 -1.570796 
2.585880 1.271424 -1.477303 -3.031417 1.107222 0.605673 
4.182477 1.497120 -1.716370 -3.048194 1.909625 -0.574362 
1.022191 1.179568 -1.478438 3.029776 0.922593 -0.637453 
5.583360 2.260000 -1.938359 0.229032 3.118152 0.275433 
4.739523 1.061693 -3.050000 -0.792878 -2.827978 1.570796 
3.946463 1.770000 -0.769328 -0.384440 -1.570796 -0.899874 
3.458403 0.551726 -0.150000 -0.133081 -3.733124 -1.570796 
1.239743 0.406720 -0.150000 1.009562 -3.990496 -1.570796 
2.206688 1.269673 -1.446024 2.994708 1.100984 0.760008 
2.209828 0.377637 -1.456922 3.010208 -2.070467 0.706209 
2.864877 1.981401 -0.979646 2.895909 -1.839652 -1.119092 
4.670941 0.246674 -3.050000 -0.757557 -4.274564 1.570796 
3.960507 1.959684 -1.979132 0.289939 -2.608893 -3.089154 
