2.183333 0.214545 -0.150000 0.523599 -4.331589 -1.570796 
1.998485 0.268182 -0.150000 0.618799 -4.236389 -1.570796 
2.183333 0.375455 -0.150000 0.523599 -4.045990 -1.570796 
1.998485 0.429091 -0.150000 0.618799 -3.950789 -1.570796 
2.183333 0.536364 -0.150000 0.523599 -3.760390 -1.570796 
1.628788 0.053636 -0.150000 0.809199 -4.617188 -1.570797 
1.443939 0.107273 -0.150000 0.904398 -4.521988 -1.570796 
1.628788 0.214545 -0.150000 0.809198 -4.331589 -1.570796 
1.443939 0.268182 -0.150000 0.904398 -4.236389 -1.570796 
1.628788 0.375455 -0.150000 0.809198 -4.045990 -1.570796 
1.074242 0.053636 -0.150000 1.094798 -4.617187 -1.570796 
0.889394 0.107273 -0.150000 1.189997 -4.521988 -1.570796 
1.074242 0.214545 -0.150000 1.094797 -4.331588 -1.570796 
0.519697 0.053636 -0.150000 1.380397 -4.617188 -1.570796 
6.104762 1.770000 -0.288095 -1.495997 -1.570796 -1.421197 
5.959524 1.770000 -0.426190 -1.421197 -1.570796 -1.271597 
6.104762 1.770000 -0.495238 -1.495997 -1.570796 -1.196797 
5.959524 1.770000 -0.633333 -1.421197 -1.570796 -1.047197 
6.104762 1.770000 -0.702381 -1.495996 -1.570796 -0.972397 
5.959524 1.770000 -0.840476 -1.421197 -1.570796 -0.822798 
6.104762 1.770000 -0.909524 -1.495997 -1.570796 -0.747998 
5.959524 1.770000 -1.047619 -1.421197 -1.570796 -0.598399 
6.104762 1.770000 -1.116667 -1.495997 -1.570796 -0.523599 
5.959524 1.770000 -1.254762 -1.421197 -1.570796 -0.373999 
6.104762 1.770000 -1.323810 -1.495996 -1.570796 -0.299199 
5.959524 1.770000 -1.461905 -1.421197 -1.570796 -0.149599 
6.104762 1.770000 -1.530952 -1.495997 -1.570796 -0.074800 
5.959524 1.770000 -1.669048 -1.421197 -1.570796 0.074800 
6.104762 1.770000 -1.738095 -1.495996 -1.570796 0.149600 
5.959524 1.770000 -1.876190 -1.421197 -1.570796 0.299199 
6.104762 1.770000 -1.945238 -1.495997 -1.570796 0.373999 
5.959524 1.770000 -2.083333 -1.421197 -1.570796 0.523599 
6.104762 1.770000 -2.152381 -1.495996 -1.570796 0.598399 
5.959524 1.770000 -2.290476 -1.421197 -1.570796 0.747998 
6.104762 1.770000 -2.359524 -1.495997 -1.570796 0.822798 
5.959524 1.770000 -2.497619 -1.421197 -1.570796 0.972398 
6.104762 1.770000 -2.566667 -1.495997 -1.570796 1.047198 
5.959524 1.770000 -2.704762 -1.421197 -1.570796 1.196797 
6.104762 1.770000 -2.773810 -1.495996 -1.570796 1.271597 
5.959524 1.770000 -2.911905 -1.421197 -1.570796 1.421197 
6.104762 1.770000 -2.980952 -1.495997 -1.570796 1.495997 
5.669047 1.770000 -0.495238 -1.271597 -1.570796 -1.196797 
5.523809 1.770000 -0.633333 -1.196797 -1.570796 -1.047197 
5.669047 1.770000 -0.702381 -1.271597 -1.570796 -0.972398 
5.523809 1.770000 -0.840476 -1.196797 -1.570796 -0.822798 
5.669048 1.770000 -0.909524 -1.271597 -1.570796 -0.747998 
5.523810 1.770000 -1.047619 -1.196797 -1.570796 -0.598399 
5.669048 1.770000 -1.116667 -1.271597 -1.570796 -0.523599 
5.523809 1.770000 -1.254762 -1.196797 -1.570796 -0.373999 
5.669047 1.770000 -1.323810 -1.271597 -1.570796 -0.299199 
5.523809 1.770000 -1.461905 -1.196797 -1.570796 -0.149600 
5.669047 1.770000 -1.530952 -1.271597 -1.570796 -0.074800 
5.523809 1.770000 -1.669048 -1.196797 -1.570796 0.074800 
5.669047 1.770000 -1.738095 -1.271597 -1.570796 0.149600 
5.523809 1.770000 -1.876190 -1.196797 -1.570796 0.299199 
5.669047 1.770000 -1.945238 -1.271597 -1.570796 0.373999 
5.523809 1.770000 -2.083333 -1.196797 -1.570796 0.523599 
5.669048 1.770000 -2.152381 -1.271597 -1.570796 0.598399 
5.523809 1.770000 -2.290476 -1.196797 -1.570796 0.747998 
5.669047 1.770000 -2.359524 -1.271597 -1.570796 0.822798 
5.523809 1.770000 -2.497619 -1.196797 -1.570796 0.972398 
5.669047 1.770000 -2.566667 -1.271597 -1.570796 1.047198 
5.523809 1.770000 -2.704762 -1.196797 -1.570796 1.196797 
5.669047 1.770000 -2.773810 -1.271597 -1.570796 1.271597 
5.523809 1.770000 -2.911905 -1.196797 -1.570796 1.421197 
5.669047 1.770000 -2.980953 -1.271597 -1.570796 1.495997 
5.233333 1.770000 -0.702381 -1.047198 -1.570796 -0.972398 
5.088095 1.770000 -0.840476 -0.972398 -1.570796 -0.822798 
5.233334 1.770000 -0.909524 -1.047198 -1.570796 -0.747998 
5.088096 1.770000 -1.047619 -0.972398 -1.570796 -0.598399 
5.233334 1.770000 -1.116667 -1.047198 -1.570796 -0.523599 
5.088095 1.770000 -1.254762 -0.972398 -1.570796 -0.373999 
5.233333 1.770000 -1.323810 -1.047197 -1.570796 -0.299199 
5.088095 1.770000 -1.461905 -0.972398 -1.570796 -0.149600 
5.233333 1.770000 -1.530952 -1.047198 -1.570796 -0.074800 
5.088096 1.770000 -1.669048 -0.972398 -1.570796 0.074800 
5.233334 1.770000 -1.738095 -1.047198 -1.570796 0.149600 
5.088095 1.770000 -1.876191 -0.972398 -1.570796 0.299199 
5.233334 1.770000 -1.945238 -1.047198 -1.570796 0.373999 
5.088095 1.770000 -2.083333 -0.972398 -1.570796 0.523599 
5.233333 1.770000 -2.152381 -1.047198 -1.570796 0.598399 
5.088095 1.770000 -2.290476 -0.972398 -1.570796 0.747998 
5.233334 1.770000 -2.359524 -1.047198 -1.570796 0.822798 
5.088095 1.770000 -2.497619 -0.972398 -1.570796 0.972398 
5.233334 1.770000 -2.566667 -1.047198 -1.570796 1.047198 
5.088096 1.770000 -2.704762 -0.972398 -1.570796 1.196797 
5.233333 1.770000 -2.773810 -1.047198 -1.570796 1.271597 
5.088095 1.770000 -2.911905 -0.972398 -1.570796 1.421197 
5.233334 1.770000 -2.980953 -1.047198 -1.570796 1.495997 
4.797619 1.770000 -0.909524 -0.822798 -1.570796 -0.747998 
4.652381 1.770000 -1.047619 -0.747998 -1.570796 -0.598399 
4.797619 1.770000 -1.116667 -0.822798 -1.570796 -0.523599 
4.652381 1.770000 -1.254762 -0.747998 -1.570796 -0.373999 
4.797619 1.770000 -1.323810 -0.822798 -1.570796 -0.299199 
4.652381 1.770000 -1.461905 -0.747998 -1.570796 -0.149600 
4.797619 1.770000 -1.530952 -0.822798 -1.570796 -0.074800 
4.652381 1.770000 -1.669048 -0.747998 -1.570796 0.074800 
4.797619 1.770000 -1.738095 -0.822798 -1.570796 0.149600 
4.652381 1.770000 -1.876190 -0.747998 -1.570796 0.299199 
4.797619 1.770000 -1.945238 -0.822798 -1.570796 0.373999 
4.652381 1.770000 -2.083333 -0.747998 -1.570796 0.523599 
4.797619 1.770000 -2.152381 -0.822798 -1.570796 0.598399 
4.652381 1.770000 -2.290476 -0.747998 -1.570796 0.747998 
4.797619 1.770000 -2.359524 -0.822798 -1.570796 0.822798 
4.652381 1.770000 -2.497619 -0.747998 -1.570796 0.972398 
4.797619 1.770000 -2.566667 -0.822798 -1.570796 1.047198 
4.652381 1.770000 -2.704762 -0.747998 -1.570796 1.196797 
4.797619 1.770000 -2.773810 -0.822798 -1.570796 1.271597 
4.652381 1.770000 -2.911905 -0.747998 -1.570796 1.421197 
4.797619 1.770000 -2.980953 -0.822798 -1.570796 1.495997 
4.361905 1.770000 -1.116667 -0.598399 -1.570796 -0.523599 
4.216666 1.770000 -1.254762 -0.523599 -1.570796 -0.373999 
4.361904 1.770000 -1.323810 -0.598399 -1.570796 -0.299199 
4.216667 1.770000 -1.461905 -0.523599 -1.570796 -0.149600 
4.361905 1.770000 -1.530952 -0.598399 -1.570796 -0.074800 
4.216667 1.770000 -1.669048 -0.523599 -1.570796 0.074800 
4.361905 1.770000 -1.738095 -0.598399 -1.570796 0.149600 
4.216666 1.770000 -1.876190 -0.523599 -1.570796 0.299199 
4.361905 1.770000 -1.945238 -0.598399 -1.570796 0.373999 
4.216666 1.770000 -2.083333 -0.523599 -1.570796 0.523599 
4.361905 1.770000 -2.152381 -0.598399 -1.570796 0.598399 
4.216667 1.770000 -2.290476 -0.523599 -1.570796 0.747998 
4.361905 1.770000 -2.359524 -0.598399 -1.570796 0.822798 
4.216667 1.770000 -2.497619 -0.523599 -1.570796 0.972398 
4.361905 1.770000 -2.566667 -0.598399 -1.570796 1.047198 
4.216666 1.770000 -2.704762 -0.523599 -1.570796 1.196797 
4.361905 1.770000 -2.773810 -0.598399 -1.570796 1.271597 
4.216667 1.770000 -2.911905 -0.523599 -1.570796 1.421197 
4.361905 1.770000 -2.980953 -0.598399 -1.570796 1.495996 
3.926190 1.770000 -1.323810 -0.373999 -1.570796 -0.299199 
3.780952 1.770000 -1.461905 -0.299199 -1.570796 -0.149600 
3.926190 1.770000 -1.530952 -0.373999 -1.570796 -0.074800 
3.780952 1.770000 -1.669048 -0.299199 -1.570796 0.074800 
3.926190 1.770000 -1.738095 -0.373999 -1.570796 0.149600 
3.780952 1.770000 -1.876191 -0.299199 -1.570796 0.299199 
3.926190 1.770000 -1.945238 -0.373999 -1.570796 0.373999 
3.780952 1.770000 -2.083333 -0.299199 -1.570796 0.523599 
3.926190 1.770000 -2.152381 -0.373999 -1.570796 0.598399 
3.780952 1.770000 -2.290476 -0.299199 -1.570796 0.747998 
3.926190 1.770000 -2.359524 -0.373999 -1.570796 0.822798 
3.780952 1.770000 -2.497619 -0.299199 -1.570796 0.972398 
3.926190 1.770000 -2.566667 -0.373999 -1.570796 1.047198 
3.780952 1.770000 -2.704762 -0.299199 -1.570796 1.196797 
3.926190 1.770000 -2.773810 -0.373999 -1.570796 1.271597 
3.780952 1.770000 -2.911905 -0.299199 -1.570796 1.421197 
3.926191 1.770000 -2.980953 -0.373999 -1.570796 1.495997 
3.490476 1.770000 -1.530952 -0.149600 -1.570796 -0.074800 
3.345238 1.770000 -1.669048 -0.074800 -1.570796 0.074800 
3.490476 1.770000 -1.738095 -0.149600 -1.570796 0.149600 
3.345238 1.770000 -1.876190 -0.074800 -1.570796 0.299199 
3.490476 1.770000 -1.945238 -0.149600 -1.570796 0.373999 
3.345238 1.770000 -2.083333 -0.074800 -1.570796 0.523599 
3.490476 1.770000 -2.152381 -0.149600 -1.570796 0.598399 
3.345238 1.770000 -2.290476 -0.074800 -1.570796 0.747998 
3.490476 1.770000 -2.359524 -0.149600 -1.570796 0.822798 
3.345238 1.770000 -2.497619 -0.074800 -1.570796 0.972398 
3.490476 1.770000 -2.566667 -0.149600 -1.570796 1.047198 
3.345238 1.770000 -2.704762 -0.074800 -1.570796 1.196797 
3.490476 1.770000 -2.773810 -0.149600 -1.570796 1.271597 
3.345238 1.770000 -2.911905 -0.074800 -1.570796 1.421197 
3.490476 1.770000 -2.980952 -0.149600 -1.570796 1.495996 
3.054762 1.770000 -1.738095 0.074800 -1.570796 0.149600 
2.909524 1.770000 -1.876190 0.149600 -1.570796 0.299199 
3.054762 1.770000 -1.945238 0.074800 -1.570796 0.373999 
2.909524 1.770000 -2.083333 0.149600 -1.570796 0.523599 
3.054762 1.770000 -2.152381 0.074800 -1.570796 0.598399 
2.909524 1.770000 -2.290476 0.149600 -1.570796 0.747998 
3.054762 1.770000 -2.359524 0.074800 -1.570796 0.822798 
2.909523 1.770000 -2.497619 0.149600 -1.570796 0.972398 
3.054762 1.770000 -2.566667 0.074800 -1.570796 1.047198 
2.909524 1.770000 -2.704762 0.149600 -1.570796 1.196797 
3.054762 1.770000 -2.773810 0.074800 -1.570796 1.271597 
2.909524 1.770000 -2.911905 0.149600 -1.570796 1.421197 
3.054762 1.770000 -2.980952 0.074800 -1.570796 1.495996 
2.619048 1.770000 -1.945238 0.299199 -1.570796 0.373999 
2.473809 1.770000 -2.083333 0.373999 -1.570796 0.523599 
2.619047 1.770000 -2.152381 0.299199 -1.570796 0.598399 
2.473809 1.770000 -2.290476 0.373999 -1.570796 0.747998 
2.619048 1.770000 -2.359524 0.299199 -1.570796 0.822798 
2.473809 1.770000 -2.497619 0.373999 -1.570796 0.972398 
2.619047 1.770000 -2.566667 0.299199 -1.570796 1.047198 
2.473809 1.770000 -2.704762 0.373999 -1.570796 1.196797 
2.619047 1.770000 -2.773810 0.299199 -1.570796 1.271597 
2.473809 1.770000 -2.911905 0.373999 -1.570796 1.421197 
2.619047 1.770000 -2.980953 0.299199 -1.570796 1.495997 
2.183333 1.770000 -2.152381 0.523599 -1.570796 0.598399 
2.038095 1.770000 -2.290476 0.598399 -1.570796 0.747998 
2.183333 1.770000 -2.359524 0.523599 -1.570796 0.822798 
2.038095 1.770000 -2.497619 0.598399 -1.570796 0.972398 
2.183333 1.770000 -2.566667 0.523599 -1.570796 1.047198 
2.038095 1.770000 -2.704762 0.598399 -1.570796 1.196797 
2.183333 1.770000 -2.773810 0.523599 -1.570796 1.271597 
2.038095 1.770000 -2.911905 0.598399 -1.570796 1.421197 
2.183333 1.770000 -2.980953 0.523599 -1.570796 1.495996 
1.747619 1.770000 -2.359524 0.747998 -1.570796 0.822798 
1.602381 1.770000 -2.497619 0.822798 -1.570796 0.972398 
1.747619 1.770000 -2.566667 0.747998 -1.570796 1.047198 
1.602381 1.770000 -2.704762 0.822798 -1.570796 1.196797 
1.747619 1.770000 -2.773810 0.747998 -1.570796 1.271597 
1.602381 1.770000 -2.911905 0.822798 -1.570796 1.421197 
1.747619 1.770000 -2.980953 0.747998 -1.570796 1.495996 
1.311904 1.770000 -2.566667 0.972398 -1.570796 1.047198 
1.166666 1.770000 -2.704762 1.047198 -1.570796 1.196797 
1.311904 1.770000 -2.773810 0.972398 -1.570796 1.271597 
1.166666 1.770000 -2.911905 1.047198 -1.570796 1.421197 
1.311905 1.770000 -2.980953 0.972398 -1.570796 1.495997 
0.876190 1.770000 -2.773810 1.196797 -1.570796 1.271597 
0.730952 1.770000 -2.911905 1.271597 -1.570796 1.421197 
0.876190 1.770000 -2.980953 1.196797 -1.570796 1.495997 
0.440476 1.770000 -2.980952 1.421197 -1.570796 1.495996 
0.295238 1.770000 -0.219048 1.495997 -1.570796 -1.495997 
0.440476 1.770000 -0.288095 1.421197 -1.570796 -1.421197 
0.730952 1.770000 -0.219048 1.271597 -1.570796 -1.495997 
0.876190 1.770000 -0.288095 1.196797 -1.570796 -1.421197 
1.166667 1.770000 -0.219048 1.047198 -1.570796 -1.495996 
1.311905 1.770000 -0.288095 0.972398 -1.570796 -1.421197 
1.602381 1.770000 -0.219048 0.822798 -1.570796 -1.495996 
1.747619 1.770000 -0.288095 0.747998 -1.570796 -1.421197 
2.038095 1.770000 -0.219048 0.598399 -1.570796 -1.495996 
2.183333 1.770000 -0.288095 0.523599 -1.570796 -1.421197 
2.473809 1.770000 -0.219048 0.373999 -1.570796 -1.495996 
2.619048 1.770000 -0.288095 0.299199 -1.570796 -1.421197 
2.909524 1.770000 -0.219048 0.149600 -1.570796 -1.495996 
3.054762 1.770000 -0.288095 0.074800 -1.570796 -1.421197 
3.345238 1.770000 -0.219048 -0.074800 -1.570796 -1.495996 
3.490476 1.770000 -0.288095 -0.149600 -1.570796 -1.421197 
3.780953 1.770000 -0.219048 -0.299199 -1.570796 -1.495996 
3.926191 1.770000 -0.288095 -0.373999 -1.570796 -1.421197 
4.216667 1.770000 -0.219048 -0.523599 -1.570796 -1.495996 
4.361905 1.770000 -0.288095 -0.598399 -1.570796 -1.421197 
4.652381 1.770000 -0.219048 -0.747998 -1.570796 -1.495996 
4.797619 1.770000 -0.288095 -0.822798 -1.570796 -1.421197 
5.088096 1.770000 -0.219048 -0.972398 -1.570796 -1.495996 
5.233334 1.770000 -0.288095 -1.047198 -1.570796 -1.421197 
5.523810 1.770000 -0.219048 -1.196797 -1.570796 -1.495996 
5.669048 1.770000 -0.288095 -1.271597 -1.570796 -1.421197 
5.959524 1.770000 -0.219048 -1.421197 -1.570796 -1.495996 
0.295238 1.770000 -0.426190 1.495997 -1.570796 -1.271597 
0.440476 1.770000 -0.495238 1.421197 -1.570796 -1.196797 
0.730952 1.770000 -0.426190 1.271597 -1.570796 -1.271597 
0.876190 1.770000 -0.495238 1.196797 -1.570796 -1.196797 
1.166667 1.770000 -0.426190 1.047198 -1.570796 -1.271597 
1.311905 1.770000 -0.495238 0.972398 -1.570796 -1.196797 
1.602381 1.770000 -0.426190 0.822798 -1.570796 -1.271597 
1.747619 1.770000 -0.495238 0.747998 -1.570796 -1.196797 
2.038095 1.770000 -0.426190 0.598399 -1.570796 -1.271597 
2.183333 1.770000 -0.495238 0.523599 -1.570796 -1.196797 
2.473809 1.770000 -0.426190 0.373999 -1.570796 -1.271597 
2.619048 1.770000 -0.495238 0.299199 -1.570796 -1.196797 
2.909524 1.770000 -0.426190 0.149600 -1.570796 -1.271597 
3.054762 1.770000 -0.495238 0.074800 -1.570796 -1.196797 
3.345238 1.770000 -0.426190 -0.074800 -1.570796 -1.271597 
3.490476 1.770000 -0.495238 -0.149600 -1.570796 -1.196797 
3.780953 1.770000 -0.426190 -0.299199 -1.570796 -1.271597 
3.926191 1.770000 -0.495238 -0.373999 -1.570796 -1.196797 
4.216667 1.770000 -0.426190 -0.523599 -1.570796 -1.271597 
4.361905 1.770000 -0.495238 -0.598399 -1.570796 -1.196797 
4.652381 1.770000 -0.426190 -0.747998 -1.570796 -1.271597 
4.797619 1.770000 -0.495238 -0.822798 -1.570796 -1.196797 
5.088095 1.770000 -0.426190 -0.972398 -1.570796 -1.271597 
5.233334 1.770000 -0.495238 -1.047198 -1.570796 -1.196797 
5.523810 1.770000 -0.426190 -1.196797 -1.570796 -1.271597 
0.295238 1.770000 -0.633333 1.495996 -1.570796 -1.047198 
0.440476 1.770000 -0.702381 1.421197 -1.570796 -0.972398 
0.730952 1.770000 -0.633333 1.271597 -1.570796 -1.047198 
0.876190 1.770000 -0.702381 1.196797 -1.570796 -0.972398 
1.166667 1.770000 -0.633333 1.047198 -1.570796 -1.047198 
1.311905 1.770000 -0.702381 0.972398 -1.570796 -0.972398 
1.602381 1.770000 -0.633333 0.822798 -1.570796 -1.047197 
1.747619 1.770000 -0.702381 0.747998 -1.570796 -0.972398 
2.038095 1.770000 -0.633333 0.598399 -1.570796 -1.047198 
2.183333 1.770000 -0.702381 0.523599 -1.570796 -0.972398 
2.473809 1.770000 -0.633333 0.373999 -1.570796 -1.047197 
2.619048 1.770000 -0.702381 0.299199 -1.570796 -0.972398 
2.909524 1.770000 -0.633333 0.149600 -1.570796 -1.047197 
3.054762 1.770000 -0.702381 0.074800 -1.570796 -0.972398 
3.345238 1.770000 -0.633333 -0.074800 -1.570796 -1.047197 
3.490476 1.770000 -0.702381 -0.149600 -1.570796 -0.972398 
3.780953 1.770000 -0.633333 -0.299199 -1.570796 -1.047198 
3.926191 1.770000 -0.702381 -0.373999 -1.570796 -0.972398 
4.216667 1.770000 -0.633333 -0.523599 -1.570796 -1.047197 
4.361905 1.770000 -0.702381 -0.598399 -1.570796 -0.972398 
4.652381 1.770000 -0.633333 -0.747998 -1.570796 -1.047198 
4.797619 1.770000 -0.702381 -0.822798 -1.570796 -0.972398 
5.088096 1.770000 -0.633333 -0.972398 -1.570796 -1.047198 
0.295238 1.770000 -0.840476 1.495997 -1.570796 -0.822798 
0.440476 1.770000 -0.909524 1.421197 -1.570796 -0.747998 
0.730952 1.770000 -0.840476 1.271597 -1.570796 -0.822798 
0.876190 1.770000 -0.909524 1.196797 -1.570796 -0.747998 
1.166667 1.770000 -0.840476 1.047197 -1.570796 -0.822798 
1.311905 1.770000 -0.909524 0.972398 -1.570796 -0.747998 
1.602381 1.770000 -0.840476 0.822798 -1.570796 -0.822798 
1.747619 1.770000 -0.909524 0.747998 -1.570796 -0.747998 
2.038095 1.770000 -0.840476 0.598399 -1.570796 -0.822798 
2.183333 1.770000 -0.909524 0.523599 -1.570796 -0.747998 
2.473810 1.770000 -0.840476 0.373999 -1.570796 -0.822798 
2.619048 1.770000 -0.909524 0.299199 -1.570796 -0.747998 
2.909524 1.770000 -0.840476 0.149600 -1.570796 -0.822798 
3.054762 1.770000 -0.909524 0.074800 -1.570796 -0.747998 
3.345238 1.770000 -0.840476 -0.074800 -1.570796 -0.822798 
3.490476 1.770000 -0.909524 -0.149600 -1.570796 -0.747998 
3.780953 1.770000 -0.840476 -0.299199 -1.570796 -0.822798 
3.926191 1.770000 -0.909524 -0.373999 -1.570796 -0.747998 
4.216667 1.770000 -0.840476 -0.523599 -1.570796 -0.822798 
4.361905 1.770000 -0.909524 -0.598399 -1.570796 -0.747998 
4.652381 1.770000 -0.840476 -0.747998 -1.570796 -0.822798 
0.295238 1.770000 -1.047619 1.495997 -1.570796 -0.598399 
0.440476 1.770000 -1.116667 1.421197 -1.570796 -0.523599 
0.730952 1.770000 -1.047619 1.271597 -1.570796 -0.598399 
0.876191 1.770000 -1.116667 1.196797 -1.570796 -0.523599 
1.166667 1.770000 -1.047619 1.047198 -1.570796 -0.598399 
1.311905 1.770000 -1.116667 0.972398 -1.570796 -0.523599 
1.602381 1.770000 -1.047619 0.822798 -1.570796 -0.598399 
1.747619 1.770000 -1.116667 0.747998 -1.570796 -0.523599 
2.038095 1.770000 -1.047619 0.598399 -1.570796 -0.598399 
2.183333 1.770000 -1.116667 0.523599 -1.570796 -0.523599 
2.473810 1.770000 -1.047619 0.373999 -1.570796 -0.598399 
2.619048 1.770000 -1.116667 0.299199 -1.570796 -0.523599 
2.909524 1.770000 -1.047619 0.149600 -1.570796 -0.598399 
3.054762 1.770000 -1.116667 0.074800 -1.570796 -0.523599 
3.345238 1.770000 -1.047619 -0.074800 -1.570796 -0.598399 
3.490476 1.770000 -1.116667 -0.149600 -1.570796 -0.523599 
3.780953 1.770000 -1.047619 -0.299199 -1.570796 -0.598399 
3.926191 1.770000 -1.116667 -0.373999 -1.570796 -0.523599 
4.216667 1.770000 -1.047619 -0.523599 -1.570796 -0.598399 
0.295238 1.770000 -1.254762 1.495996 -1.570796 -0.373999 
0.440476 1.770000 -1.323810 1.421197 -1.570796 -0.299199 
0.730952 1.770000 -1.254762 1.271597 -1.570796 -0.373999 
0.876191 1.770000 -1.323810 1.196797 -1.570796 -0.299199 
1.166667 1.770000 -1.254762 1.047198 -1.570796 -0.373999 
1.311905 1.770000 -1.323810 0.972398 -1.570796 -0.299199 
1.602381 1.770000 -1.254762 0.822798 -1.570796 -0.373999 
1.747619 1.770000 -1.323810 0.747998 -1.570796 -0.299199 
2.038095 1.770000 -1.254762 0.598399 -1.570796 -0.373999 
2.183333 1.770000 -1.323810 0.523599 -1.570796 -0.299199 
2.473810 1.770000 -1.254762 0.373999 -1.570796 -0.373999 
2.619048 1.770000 -1.323810 0.299199 -1.570796 -0.299199 
2.909524 1.770000 -1.254762 0.149600 -1.570796 -0.373999 
3.054762 1.770000 -1.323810 0.074800 -1.570796 -0.299199 
3.345238 1.770000 -1.254762 -0.074800 -1.570796 -0.373999 
3.490476 1.770000 -1.323810 -0.149600 -1.570796 -0.299199 
3.780953 1.770000 -1.254762 -0.299199 -1.570796 -0.373999 
0.295238 1.770000 -1.461905 1.495997 -1.570796 -0.149600 
0.440476 1.770000 -1.530952 1.421197 -1.570796 -0.074800 
0.730952 1.770000 -1.461905 1.271597 -1.570796 -0.149600 
0.876191 1.770000 -1.530952 1.196797 -1.570796 -0.074800 
1.166667 1.770000 -1.461905 1.047198 -1.570796 -0.149600 
1.311905 1.770000 -1.530952 0.972398 -1.570796 -0.074800 
1.602381 1.770000 -1.461905 0.822798 -1.570796 -0.149600 
1.747619 1.770000 -1.530952 0.747998 -1.570796 -0.074800 
2.038095 1.770000 -1.461905 0.598399 -1.570796 -0.149600 
2.183333 1.770000 -1.530952 0.523599 -1.570796 -0.074800 
2.473810 1.770000 -1.461905 0.373999 -1.570796 -0.149600 
2.619048 1.770000 -1.530952 0.299199 -1.570796 -0.074800 
2.909524 1.770000 -1.461905 0.149600 -1.570796 -0.149600 
3.054762 1.770000 -1.530952 0.074800 -1.570796 -0.074800 
3.345238 1.770000 -1.461905 -0.074800 -1.570796 -0.149600 
0.295238 1.770000 -1.669047 1.495996 -1.570796 0.074800 
0.440476 1.770000 -1.738095 1.421197 -1.570796 0.149600 
0.730952 1.770000 -1.669047 1.271597 -1.570796 0.074800 
0.876190 1.770000 -1.738095 1.196797 -1.570796 0.149600 
1.166667 1.770000 -1.669047 1.047198 -1.570796 0.074800 
1.311905 1.770000 -1.738095 0.972398 -1.570796 0.149600 
1.602381 1.770000 -1.669047 0.822798 -1.570796 0.074800 
1.747619 1.770000 -1.738095 0.747998 -1.570796 0.149600 
2.038095 1.770000 -1.669047 0.598399 -1.570796 0.074800 
2.183333 1.770000 -1.738095 0.523599 -1.570796 0.149600 
2.473809 1.770000 -1.669047 0.373999 -1.570796 0.074800 
2.619048 1.770000 -1.738095 0.299199 -1.570796 0.149600 
2.909524 1.770000 -1.669047 0.149600 -1.570796 0.074800 
0.295238 1.770000 -1.876191 1.495997 -1.570796 0.299199 
0.440476 1.770000 -1.945238 1.421197 -1.570796 0.373999 
0.730952 1.770000 -1.876191 1.271597 -1.570796 0.299199 
0.876190 1.770000 -1.945238 1.196797 -1.570796 0.373999 
1.166667 1.770000 -1.876191 1.047198 -1.570796 0.299199 
1.311905 1.770000 -1.945238 0.972398 -1.570796 0.373999 
1.602381 1.770000 -1.876191 0.822798 -1.570796 0.299199 
1.747619 1.770000 -1.945238 0.747998 -1.570796 0.373999 
2.038095 1.770000 -1.876191 0.598399 -1.570796 0.299199 
2.183333 1.770000 -1.945238 0.523599 -1.570796 0.373999 
2.473809 1.770000 -1.876191 0.373999 -1.570796 0.299199 
0.295238 1.770000 -2.083333 1.495996 -1.570796 0.523599 
0.440476 1.770000 -2.152381 1.421197 -1.570796 0.598399 
0.730952 1.770000 -2.083333 1.271597 -1.570796 0.523599 
0.876190 1.770000 -2.152381 1.196797 -1.570796 0.598399 
1.166667 1.770000 -2.083333 1.047198 -1.570796 0.523599 
1.311905 1.770000 -2.152381 0.972398 -1.570796 0.598399 
1.602381 1.770000 -2.083333 0.822798 -1.570796 0.523599 
1.747619 1.770000 -2.152381 0.747998 -1.570796 0.598399 
2.038095 1.770000 -2.083333 0.598399 -1.570796 0.523599 
0.295238 1.770000 -2.290477 1.495997 -1.570796 0.747998 
0.440476 1.770000 -2.359524 1.421197 -1.570796 0.822798 
0.730952 1.770000 -2.290477 1.271597 -1.570796 0.747998 
0.876190 1.770000 -2.359524 1.196797 -1.570796 0.822798 
1.166667 1.770000 -2.290477 1.047198 -1.570796 0.747998 
1.311905 1.770000 -2.359524 0.972398 -1.570796 0.822798 
1.602381 1.770000 -2.290477 0.822798 -1.570796 0.747998 
0.295238 1.770000 -2.497619 1.495997 -1.570796 0.972398 
0.440476 1.770000 -2.566667 1.421197 -1.570796 1.047198 
0.730952 1.770000 -2.497619 1.271597 -1.570796 0.972398 
0.876190 1.770000 -2.566667 1.196797 -1.570796 1.047198 
1.166667 1.770000 -2.497619 1.047198 -1.570796 0.972398 
0.295238 1.770000 -2.704762 1.495996 -1.570796 1.196797 
0.440476 1.770000 -2.773809 1.421197 -1.570796 1.271597 
0.730952 1.770000 -2.704762 1.271597 -1.570796 1.196797 
0.295238 1.770000 -2.911905 1.495997 -1.570796 1.421197 
6.250000 1.622500 -0.270833 -1.570795 -1.832596 -1.439898 
6.250000 1.475000 -0.391667 -1.570794 -2.094395 -1.309000 
6.250000 1.401250 -0.270833 -1.570795 -2.225295 -1.439898 
6.250000 1.253750 -0.391667 -1.570793 -2.487094 -1.309000 
6.250000 1.180000 -0.270833 -1.570794 -2.617994 -1.439898 
6.250000 1.032500 -0.391667 -1.570793 -2.879794 -1.309000 
6.250000 0.958750 -0.270833 -1.570794 -3.010693 -1.439898 
6.250000 0.811250 -0.391667 -1.570793 -3.272493 -1.309000 
6.250000 0.737500 -0.270833 -1.570794 -3.403393 -1.439899 
6.250000 0.590000 -0.391667 -1.570792 -3.665192 -1.309000 
6.250000 0.516250 -0.270833 -1.570794 -3.796092 -1.439899 
6.250000 0.368750 -0.391667 -1.570792 -4.057891 -1.309000 
6.250000 0.295000 -0.270833 -1.570793 -4.188791 -1.439899 
6.250000 0.147500 -0.391667 -1.570792 -4.450591 -1.309001 
6.250000 0.073750 -0.270833 -1.570793 -4.581490 -1.439899 
6.250000 1.401250 -0.633333 -1.570791 -2.225295 -1.047203 
6.250000 1.253750 -0.754167 -1.570790 -2.487094 -0.916304 
6.250000 1.180000 -0.633333 -1.570791 -2.617994 -1.047203 
6.250000 1.032500 -0.754167 -1.570789 -2.879793 -0.916305 
6.250000 0.958750 -0.633333 -1.570791 -3.010693 -1.047203 
6.250000 0.811250 -0.754167 -1.570789 -3.272493 -0.916305 
6.250000 0.737500 -0.633333 -1.570790 -3.403392 -1.047203 
6.250000 0.590000 -0.754167 -1.570789 -3.665192 -0.916305 
6.250000 0.516250 -0.633333 -1.570790 -3.796092 -1.047204 
6.250000 0.368750 -0.754167 -1.570789 -4.057891 -0.916305 
6.250001 0.295000 -0.633333 -1.570790 -4.188791 -1.047204 
6.250000 0.147500 -0.754167 -1.570788 -4.450591 -0.916305 
6.250000 0.073750 -0.633333 -1.570789 -4.581490 -1.047204 
6.250000 1.180000 -0.995833 -1.570787 -2.617994 -0.654508 
6.250000 1.032500 -1.116667 -1.570786 -2.879793 -0.523609 
6.250000 0.958750 -0.995833 -1.570787 -3.010693 -0.654508 
6.250000 0.811250 -1.116667 -1.570786 -3.272492 -0.523610 
6.250000 0.737500 -0.995833 -1.570786 -3.403392 -0.654508 
6.250000 0.590000 -1.116667 -1.570785 -3.665192 -0.523610 
6.250000 0.516250 -0.995833 -1.570786 -3.796092 -0.654508 
6.250000 0.368750 -1.116667 -1.570785 -4.057891 -0.523610 
6.250000 0.295000 -0.995833 -1.570786 -4.188791 -0.654509 
6.250000 0.147500 -1.116667 -1.570785 -4.450590 -0.523610 
6.250000 0.073750 -0.995833 -1.570786 -4.581490 -0.654509 
6.250000 0.958750 -1.358333 -1.570783 -3.010693 -0.261813 
6.250000 0.811250 -1.479167 -1.570782 -3.272493 -0.130914 
6.250000 0.737500 -1.358333 -1.570783 -3.403392 -0.261813 
6.250000 0.590000 -1.479167 -1.570782 -3.665192 -0.130914 
6.250000 0.516250 -1.358333 -1.570783 -3.796091 -0.261813 
6.250000 0.368750 -1.479167 -1.570781 -4.057891 -0.130915 
6.250000 0.295000 -1.358333 -1.570782 -4.188790 -0.261813 
6.250000 0.147500 -1.479167 -1.570781 -4.450591 -0.130915 
6.250000 0.073750 -1.358333 -1.570782 -4.581490 -0.261813 
6.250000 0.737500 -1.720833 -1.570779 -3.403392 0.130883 
6.250000 0.590000 -1.841667 -1.570778 -3.665192 0.261781 
6.250000 0.516250 -1.720833 -1.570779 -3.796092 0.130882 
6.250000 0.368750 -1.841667 -1.570778 -4.057890 0.261781 
6.250000 0.295000 -1.720833 -1.570779 -4.188790 0.130882 
6.250000 0.147500 -1.841667 -1.570777 -4.450590 0.261780 
6.250000 0.073750 -1.720833 -1.570778 -4.581490 0.130882 
6.250000 0.516250 -2.083333 -1.570775 -3.796091 0.523578 
6.250000 0.368750 -2.204167 -1.570774 -4.057890 0.654476 
6.250001 0.295000 -2.083333 -1.570775 -4.188790 0.523577 
6.250000 0.147500 -2.204167 -1.570774 -4.450590 0.654476 
6.250000 0.073750 -2.083333 -1.570775 -4.581490 0.523577 
6.250000 0.295000 -2.445833 -1.570771 -4.188790 0.916273 
6.250000 0.147500 -2.566667 -1.570770 -4.450590 1.047171 
6.250000 0.073750 -2.445833 -1.570771 -4.581490 0.916273 
6.250000 0.073750 -2.808333 -1.570768 -4.581490 1.308968 
6.250000 1.696250 -2.929167 -1.570795 -1.701696 1.439895 
6.250000 1.622500 -2.808333 -1.570794 -1.832596 1.308994 
6.250000 1.696250 -2.566667 -1.570795 -1.701696 1.047196 
6.250000 1.622500 -2.445833 -1.570794 -1.832596 0.916295 
6.250000 1.696250 -2.204167 -1.570795 -1.701696 0.654497 
6.250000 1.622500 -2.083333 -1.570794 -1.832596 0.523596 
6.250000 1.696250 -1.841667 -1.570795 -1.701696 0.261798 
6.250000 1.622500 -1.720833 -1.570794 -1.832596 0.130897 
6.250000 1.696250 -1.479167 -1.570795 -1.701696 -0.130901 
6.250000 1.622500 -1.358333 -1.570794 -1.832596 -0.261802 
6.250000 1.696250 -1.116667 -1.570795 -1.701696 -0.523600 
6.250000 1.622500 -0.995833 -1.570794 -1.832596 -0.654501 
6.250000 1.696250 -0.754167 -1.570795 -1.701696 -0.916299 
6.250000 1.622500 -0.633333 -1.570794 -1.832596 -1.047200 
6.250000 1.696250 -0.391667 -1.570795 -1.701696 -1.308998 
6.250000 1.475000 -2.929167 -1.570791 -2.094395 1.439891 
6.250000 1.401250 -2.808333 -1.570790 -2.225295 1.308990 
6.250000 1.475000 -2.566667 -1.570791 -2.094395 1.047192 
6.250000 1.401250 -2.445833 -1.570790 -2.225295 0.916291 
6.250000 1.475000 -2.204167 -1.570791 -2.094395 0.654493 
6.250000 1.401250 -2.083333 -1.570790 -2.225295 0.523592 
6.250000 1.475000 -1.841667 -1.570791 -2.094395 0.261794 
6.250000 1.401250 -1.720833 -1.570790 -2.225295 0.130893 
6.250000 1.475000 -1.479167 -1.570791 -2.094395 -0.130905 
6.250000 1.401250 -1.358333 -1.570790 -2.225295 -0.261806 
6.250001 1.475000 -1.116667 -1.570791 -2.094395 -0.523604 
6.250000 1.401250 -0.995833 -1.570790 -2.225295 -0.654505 
6.250000 1.475000 -0.754167 -1.570791 -2.094395 -0.916303 
6.250000 1.253750 -2.929167 -1.570787 -2.487094 1.439887 
6.250000 1.180000 -2.808333 -1.570786 -2.617994 1.308986 
6.250000 1.253750 -2.566667 -1.570787 -2.487094 1.047188 
6.250000 1.180000 -2.445833 -1.570786 -2.617994 0.916287 
6.250000 1.253750 -2.204166 -1.570787 -2.487094 0.654489 
6.250000 1.180000 -2.083333 -1.570786 -2.617994 0.523588 
6.250000 1.253750 -1.841667 -1.570787 -2.487094 0.261790 
6.250000 1.180000 -1.720833 -1.570786 -2.617994 0.130889 
6.250000 1.253750 -1.479167 -1.570787 -2.487094 -0.130909 
6.250000 1.180000 -1.358333 -1.570786 -2.617994 -0.261810 
6.250000 1.253750 -1.116667 -1.570787 -2.487094 -0.523608 
6.250000 1.032500 -2.929167 -1.570783 -2.879793 1.439883 
6.250000 0.958750 -2.808333 -1.570782 -3.010693 1.308982 
6.250000 1.032500 -2.566667 -1.570783 -2.879793 1.047184 
6.250000 0.958750 -2.445833 -1.570782 -3.010693 0.916283 
6.250000 1.032500 -2.204167 -1.570783 -2.879793 0.654485 
6.250000 0.958750 -2.083333 -1.570782 -3.010693 0.523584 
6.250000 1.032500 -1.841667 -1.570783 -2.879793 0.261786 
6.250000 0.958750 -1.720833 -1.570782 -3.010693 0.130885 
6.250000 1.032500 -1.479167 -1.570783 -2.879793 -0.130913 
6.250000 0.811250 -2.929167 -1.570779 -3.272492 1.439880 
6.250000 0.737500 -2.808333 -1.570778 -3.403392 1.308979 
6.250000 0.811250 -2.566667 -1.570779 -3.272492 1.047181 
6.250000 0.737500 -2.445833 -1.570778 -3.403392 0.916279 
6.250000 0.811250 -2.204167 -1.570779 -3.272492 0.654481 
6.250000 0.737500 -2.083333 -1.570778 -3.403392 0.523580 
6.250000 0.811250 -1.841667 -1.570779 -3.272492 0.261782 
6.250000 0.590000 -2.929167 -1.570776 -3.665192 1.439876 
6.250000 0.516250 -2.808333 -1.570774 -3.796091 1.308975 
6.250001 0.590000 -2.566667 -1.570776 -3.665191 1.047177 
6.250000 0.516250 -2.445833 -1.570774 -3.796091 0.916275 
6.250000 0.590000 -2.204167 -1.570776 -3.665192 0.654477 
6.250000 0.368750 -2.929167 -1.570771 -4.057891 1.439872 
6.250000 0.295000 -2.808333 -1.570770 -4.188790 1.308971 
6.250000 0.368750 -2.566667 -1.570772 -4.057890 1.047173 
6.250000 0.147500 -2.929167 -1.570768 -4.450590 1.439868 
6.400000 1.760000 -3.066667 1.570797 1.308997 -1.439897 
6.400000 1.600000 -2.933333 1.570797 1.047198 -1.308998 
6.400001 1.520000 -3.066667 1.570798 0.916298 -1.439898 
6.400000 1.360000 -2.933333 1.570799 0.654499 -1.308999 
6.400001 1.280001 -3.066667 1.570800 0.523599 -1.439900 
6.400000 1.120001 -2.933333 1.570800 0.261800 -1.309000 
6.400001 1.040001 -3.066667 1.570801 0.130900 -1.439901 
6.400000 0.880001 -2.933333 1.570801 -0.130899 -1.309002 
6.400001 0.800001 -3.066667 1.570802 -0.261799 -1.439902 
6.400001 0.640001 -2.933333 1.570802 -0.523598 -1.309003 
6.400001 0.560001 -3.066667 1.570803 -0.654498 -1.439904 
6.400000 0.400001 -2.933333 1.570804 -0.916297 -1.309004 
6.400001 0.320002 -3.066667 1.570805 -1.047197 -1.439905 
6.400000 0.160002 -2.933333 1.570805 -1.308997 -1.309006 
6.400001 0.080002 -3.066667 1.570806 -1.439896 -1.439906 
6.400001 1.520000 -2.666667 1.570797 0.916298 -1.047198 
6.400000 1.360000 -2.533333 1.570797 0.654499 -0.916299 
6.400001 1.280000 -2.666667 1.570798 0.523599 -1.047199 
6.400000 1.120000 -2.533333 1.570799 0.261800 -0.916300 
6.400001 1.040001 -2.666667 1.570800 0.130900 -1.047201 
6.400000 0.880001 -2.533333 1.570800 -0.130899 -0.916302 
6.400001 0.800001 -2.666667 1.570801 -0.261799 -1.047202 
6.400001 0.640001 -2.533333 1.570801 -0.523598 -0.916303 
6.400001 0.560001 -2.666667 1.570802 -0.654498 -1.047203 
6.400000 0.400001 -2.533333 1.570802 -0.916297 -0.916304 
6.400000 0.320001 -2.666667 1.570804 -1.047197 -1.047205 
6.400000 0.160001 -2.533333 1.570804 -1.308996 -0.916305 
6.400001 0.080002 -2.666667 1.570805 -1.439896 -1.047206 
6.400001 1.280000 -2.266667 1.570797 0.523599 -0.654499 
6.400000 1.120000 -2.133333 1.570797 0.261800 -0.523600 
6.400001 1.040000 -2.266667 1.570798 0.130900 -0.654500 
6.400000 0.880000 -2.133333 1.570799 -0.130899 -0.523601 
6.400000 0.800001 -2.266667 1.570799 -0.261799 -0.654502 
6.400001 0.640001 -2.133333 1.570800 -0.523598 -0.523602 
6.400000 0.560001 -2.266667 1.570801 -0.654498 -0.654503 
6.400000 0.400001 -2.133333 1.570801 -0.916297 -0.523604 
6.400000 0.320001 -2.266667 1.570802 -1.047197 -0.654504 
6.400000 0.160001 -2.133333 1.570802 -1.308996 -0.523605 
6.400001 0.080001 -2.266667 1.570803 -1.439896 -0.654506 
6.400001 1.040000 -1.866667 1.570797 0.130901 -0.261800 
6.400000 0.880000 -1.733333 1.570797 -0.130899 -0.130901 
6.400001 0.800000 -1.866667 1.570798 -0.261799 -0.261801 
6.400001 0.640000 -1.733333 1.570799 -0.523598 -0.130902 
6.400000 0.560001 -1.866667 1.570799 -0.654498 -0.261803 
6.400000 0.400001 -1.733333 1.570800 -0.916297 -0.130903 
6.400000 0.320001 -1.866667 1.570801 -1.047197 -0.261804 
6.400000 0.160001 -1.733333 1.570801 -1.308996 -0.130905 
6.400001 0.080001 -1.866667 1.570802 -1.439896 -0.261805 
6.400001 0.800000 -1.466667 1.570797 -0.261799 0.130899 
6.400001 0.640000 -1.333333 1.570797 -0.523598 0.261798 
6.400001 0.560000 -1.466667 1.570798 -0.654498 0.130898 
6.400000 0.400000 -1.333333 1.570799 -0.916297 0.261797 
6.400000 0.320001 -1.466667 1.570799 -1.047197 0.130896 
6.400000 0.160001 -1.333333 1.570800 -1.308996 0.261796 
6.400001 0.080001 -1.466667 1.570801 -1.439896 0.130895 
6.400001 0.560000 -1.066667 1.570797 -0.654497 0.523598 
6.400000 0.400000 -0.933333 1.570797 -0.916297 0.654497 
6.400000 0.320000 -1.066667 1.570798 -1.047196 0.523597 
6.400000 0.160000 -0.933333 1.570798 -1.308996 0.654496 
6.400001 0.080001 -1.066667 1.570799 -1.439895 0.523596 
6.400001 0.320000 -0.666667 1.570797 -1.047196 0.916297 
6.400000 0.160000 -0.533333 1.570797 -1.308995 1.047196 
6.400001 0.080000 -0.666667 1.570798 -1.439895 0.916296 
6.400001 0.080000 -0.266667 1.570797 -1.439895 1.308996 
6.400000 1.848889 -0.118519 1.570796 1.454441 1.454441 
6.400001 1.777778 -0.237037 1.570796 1.338086 1.338086 
6.400001 1.848889 -0.474074 1.570796 1.454441 1.105375 
6.400001 1.777778 -0.592593 1.570796 1.338086 0.989020 
6.400000 1.848889 -0.829630 1.570796 1.454441 0.756309 
6.400001 1.777778 -0.948148 1.570796 1.338086 0.639954 
6.400001 1.848889 -1.185185 1.570796 1.454441 0.407243 
6.400000 1.777778 -1.303704 1.570796 1.338086 0.290888 
6.400000 1.848889 -1.540741 1.570796 1.454441 0.058178 
6.400000 1.777778 -1.659259 1.570796 1.338086 -0.058178 
6.400001 1.848889 -1.896297 1.570796 1.454441 -0.290888 
6.400000 1.777778 -2.014815 1.570796 1.338086 -0.407244 
6.400000 1.848889 -2.251852 1.570796 1.454441 -0.639954 
6.400001 1.777778 -2.370371 1.570796 1.338086 -0.756310 
6.400000 1.848889 -2.607407 1.570796 1.454441 -0.989020 
6.400000 1.777778 -2.725926 1.570796 1.338086 -1.105375 
6.400000 1.848889 -2.962963 1.570796 1.454441 -1.338086 
6.400001 1.635556 -0.118519 1.570796 1.105376 1.454441 
6.400001 1.564445 -0.237037 1.570796 0.989020 1.338086 
6.400000 1.635556 -0.474074 1.570796 1.105375 1.105375 
6.400001 1.564444 -0.592593 1.570796 0.989020 0.989020 
6.400000 1.635556 -0.829630 1.570796 1.105375 0.756309 
6.400001 1.564445 -0.948148 1.570796 0.989020 0.639954 
6.400001 1.635556 -1.185185 1.570796 1.105376 0.407243 
6.400000 1.564444 -1.303704 1.570796 0.989020 0.290888 
6.400000 1.635556 -1.540741 1.570796 1.105376 0.058178 
6.400000 1.564444 -1.659259 1.570796 0.989020 -0.058178 
6.400001 1.635556 -1.896297 1.570796 1.105376 -0.290888 
6.400001 1.564444 -2.014815 1.570796 0.989020 -0.407244 
6.400000 1.635556 -2.251852 1.570796 1.105375 -0.639954 
6.400001 1.564444 -2.370371 1.570796 0.989020 -0.756310 
6.400000 1.635556 -2.607407 1.570796 1.105375 -0.989020 
6.400000 1.422222 -0.118519 1.570796 0.756310 1.454441 
6.400000 1.351111 -0.237037 1.570796 0.639955 1.338086 
6.400000 1.422222 -0.474074 1.570796 0.756310 1.105375 
6.400000 1.351111 -0.592593 1.570796 0.639955 0.989020 
6.400000 1.422222 -0.829630 1.570796 0.756310 0.756309 
6.400001 1.351111 -0.948148 1.570796 0.639955 0.639954 
6.400000 1.422222 -1.185185 1.570796 0.756310 0.407243 
6.400000 1.351111 -1.303704 1.570796 0.639955 0.290888 
6.400000 1.422222 -1.540741 1.570796 0.756310 0.058178 
6.400000 1.351111 -1.659259 1.570796 0.639955 -0.058178 
6.400000 1.422222 -1.896297 1.570796 0.756310 -0.290888 
6.400001 1.351111 -2.014815 1.570796 0.639955 -0.407244 
6.400000 1.422222 -2.251852 1.570796 0.756310 -0.639954 
6.400001 1.208889 -0.118519 1.570796 0.407244 1.454441 
6.400000 1.137778 -0.237037 1.570796 0.290889 1.338086 
6.400001 1.208889 -0.474074 1.570796 0.407244 1.105375 
6.400000 1.137778 -0.592593 1.570796 0.290889 0.989020 
6.400000 1.208889 -0.829630 1.570796 0.407244 0.756309 
6.400000 1.137778 -0.948148 1.570796 0.290889 0.639954 
6.400001 1.208889 -1.185185 1.570796 0.407244 0.407243 
6.400000 1.137778 -1.303704 1.570796 0.290889 0.290888 
6.400000 1.208889 -1.540741 1.570796 0.407244 0.058177 
6.400000 1.137778 -1.659259 1.570796 0.290889 -0.058178 
6.400001 1.208889 -1.896297 1.570796 0.407244 -0.290889 
6.400000 0.995556 -0.118519 1.570796 0.058178 1.454441 
6.400000 0.924444 -0.237037 1.570796 -0.058177 1.338086 
6.400000 0.995556 -0.474074 1.570796 0.058178 1.105375 
6.400000 0.924444 -0.592593 1.570796 -0.058177 0.989020 
6.400000 0.995556 -0.829630 1.570796 0.058178 0.756309 
6.400000 0.924444 -0.948148 1.570796 -0.058177 0.639954 
6.400000 0.995556 -1.185185 1.570796 0.058178 0.407243 
6.400000 0.924444 -1.303704 1.570796 -0.058177 0.290888 
6.400000 0.995555 -1.540741 1.570796 0.058178 0.058177 
6.400001 0.782222 -0.118519 1.570796 -0.290887 1.454441 
6.400000 0.711111 -0.237037 1.570796 -0.407242 1.338086 
6.400001 0.782222 -0.474074 1.570796 -0.290887 1.105375 
6.400001 0.711111 -0.592593 1.570796 -0.407242 0.989020 
6.400000 0.782222 -0.829630 1.570796 -0.290887 0.756309 
6.400001 0.711111 -0.948148 1.570796 -0.407242 0.639954 
6.400001 0.782222 -1.185185 1.570796 -0.290887 0.407243 
6.400000 0.568889 -0.118519 1.570796 -0.639953 1.454441 
6.400001 0.497778 -0.237037 1.570796 -0.756308 1.338086 
6.400000 0.568889 -0.474074 1.570796 -0.639953 1.105375 
6.400001 0.497778 -0.592593 1.570796 -0.756308 0.989020 
6.400000 0.568889 -0.829630 1.570796 -0.639953 0.756309 
6.400001 0.355556 -0.118519 1.570796 -0.989019 1.454441 
6.400000 0.284444 -0.237037 1.570796 -1.105374 1.338086 
6.400001 0.355556 -0.474074 1.570796 -0.989018 1.105375 
6.400000 0.142222 -0.118519 1.570796 -1.338084 1.454441 
6.115556 1.920000 -0.071111 1.431170 1.570796 1.500983 
5.831111 1.920000 -0.142222 1.291544 1.570796 1.431170 
5.688889 1.920000 -0.071111 1.221730 1.570796 1.500983 
5.404445 1.920000 -0.142222 1.082104 1.570796 1.431170 
5.262222 1.920000 -0.071111 1.012291 1.570796 1.500983 
4.977777 1.920000 -0.142222 0.872665 1.570796 1.431170 
4.835556 1.920000 -0.071111 0.802851 1.570796 1.500983 
4.551111 1.920000 -0.142222 0.663225 1.570796 1.431170 
4.408889 1.920000 -0.071111 0.593412 1.570796 1.500983 
4.124444 1.920000 -0.142222 0.453786 1.570796 1.431170 
3.982222 1.920000 -0.071111 0.383972 1.570796 1.500983 
3.697778 1.920000 -0.142222 0.244346 1.570796 1.431170 
3.555555 1.920000 -0.071111 0.174533 1.570796 1.500983 
3.271111 1.920000 -0.142222 0.034906 1.570796 1.431170 
3.128889 1.920000 -0.071111 -0.034907 1.570796 1.500983 
2.844444 1.920000 -0.142222 -0.174533 1.570796 1.431170 
2.702222 1.920000 -0.071111 -0.244346 1.570796 1.500983 
2.417778 1.920000 -0.142222 -0.383973 1.570796 1.431170 
2.275555 1.920000 -0.071111 -0.453786 1.570796 1.500983 
1.991111 1.920000 -0.142222 -0.593412 1.570796 1.431170 
1.848889 1.920000 -0.071111 -0.663225 1.570796 1.500983 
1.564444 1.920000 -0.142222 -0.802852 1.570796 1.431170 
1.422222 1.920000 -0.071111 -0.872665 1.570796 1.500983 
1.137777 1.920000 -0.142222 -1.012291 1.570796 1.431170 
0.995555 1.920000 -0.071111 -1.082104 1.570796 1.500983 
0.711111 1.920000 -0.142222 -1.221731 1.570796 1.431170 
0.568888 1.920000 -0.071111 -1.291544 1.570796 1.500983 
0.284444 1.920000 -0.142222 -1.431170 1.570796 1.431170 
0.142222 1.920000 -0.071111 -1.500983 1.570796 1.500983 
5.688889 1.920000 -0.284444 1.221730 1.570796 1.291544 
5.404445 1.920000 -0.355556 1.082104 1.570796 1.221730 
5.262222 1.920000 -0.284444 1.012291 1.570796 1.291544 
4.977777 1.920000 -0.355556 0.872665 1.570796 1.221730 
4.835556 1.920000 -0.284444 0.802851 1.570796 1.291544 
4.551111 1.920000 -0.355556 0.663225 1.570796 1.221731 
4.408889 1.920000 -0.284444 0.593412 1.570796 1.291544 
4.124444 1.920000 -0.355556 0.453786 1.570796 1.221730 
3.982222 1.920000 -0.284444 0.383972 1.570796 1.291544 
3.697778 1.920000 -0.355556 0.244346 1.570796 1.221730 
3.555555 1.920000 -0.284444 0.174533 1.570796 1.291544 
3.271111 1.920000 -0.355556 0.034906 1.570796 1.221730 
3.128889 1.920000 -0.284444 -0.034907 1.570796 1.291544 
2.844444 1.920000 -0.355556 -0.174533 1.570796 1.221731 
2.702222 1.920000 -0.284444 -0.244346 1.570796 1.291544 
2.417778 1.920000 -0.355556 -0.383973 1.570796 1.221730 
2.275555 1.920000 -0.284444 -0.453786 1.570796 1.291544 
1.991111 1.920000 -0.355556 -0.593412 1.570796 1.221730 
1.848889 1.920000 -0.284444 -0.663225 1.570796 1.291544 
1.564444 1.920000 -0.355556 -0.802852 1.570796 1.221731 
1.422222 1.920000 -0.284444 -0.872665 1.570796 1.291544 
1.137778 1.920000 -0.355556 -1.012291 1.570796 1.221731 
0.995555 1.920000 -0.284444 -1.082104 1.570796 1.291544 
0.711111 1.920000 -0.355556 -1.221731 1.570796 1.221731 
0.568888 1.920000 -0.284444 -1.291544 1.570796 1.291544 
0.284444 1.920000 -0.355556 -1.431170 1.570796 1.221731 
0.142222 1.920000 -0.284444 -1.500984 1.570796 1.291544 
5.262222 1.920000 -0.497778 1.012291 1.570796 1.082104 
4.977777 1.920000 -0.568889 0.872665 1.570796 1.012291 
4.835556 1.920000 -0.497778 0.802851 1.570796 1.082104 
4.551111 1.920000 -0.568889 0.663225 1.570796 1.012291 
4.408889 1.920000 -0.497778 0.593412 1.570796 1.082104 
4.124444 1.920000 -0.568889 0.453785 1.570796 1.012291 
3.982222 1.920000 -0.497778 0.383972 1.570796 1.082104 
3.697777 1.920000 -0.568889 0.244346 1.570796 1.012291 
3.555555 1.920000 -0.497778 0.174533 1.570796 1.082104 
3.271111 1.920000 -0.568889 0.034907 1.570796 1.012291 
3.128889 1.920000 -0.497778 -0.034907 1.570796 1.082104 
2.844444 1.920000 -0.568889 -0.174533 1.570796 1.012291 
2.702222 1.920000 -0.497778 -0.244346 1.570796 1.082104 
2.417778 1.920000 -0.568889 -0.383973 1.570796 1.012291 
2.275555 1.920000 -0.497778 -0.453786 1.570796 1.082104 
1.991111 1.920000 -0.568889 -0.593412 1.570796 1.012291 
1.848889 1.920000 -0.497778 -0.663225 1.570796 1.082104 
1.564444 1.920000 -0.568889 -0.802852 1.570796 1.012291 
1.422222 1.920000 -0.497778 -0.872665 1.570796 1.082104 
1.137778 1.920000 -0.568889 -1.012291 1.570796 1.012291 
0.995556 1.920000 -0.497778 -1.082104 1.570796 1.082104 
0.711111 1.920000 -0.568889 -1.221731 1.570796 1.012291 
0.568889 1.920000 -0.497778 -1.291544 1.570796 1.082104 
0.284444 1.920000 -0.568889 -1.431170 1.570796 1.012291 
0.142222 1.920000 -0.497778 -1.500984 1.570796 1.082104 
4.835556 1.920000 -0.711111 0.802851 1.570796 0.872665 
4.551111 1.920000 -0.782222 0.663225 1.570796 0.802851 
4.408889 1.920000 -0.711111 0.593412 1.570796 0.872665 
4.124444 1.920000 -0.782222 0.453786 1.570796 0.802851 
3.982222 1.920000 -0.711111 0.383972 1.570796 0.872665 
3.697777 1.920000 -0.782222 0.244346 1.570796 0.802851 
3.555555 1.920000 -0.711111 0.174533 1.570796 0.872665 
3.271111 1.920000 -0.782222 0.034907 1.570796 0.802851 
3.128889 1.920000 -0.711111 -0.034907 1.570796 0.872665 
2.844444 1.920000 -0.782222 -0.174533 1.570796 0.802851 
2.702222 1.920000 -0.711111 -0.244346 1.570796 0.872665 
2.417778 1.920000 -0.782222 -0.383973 1.570796 0.802851 
2.275555 1.920000 -0.711111 -0.453786 1.570796 0.872665 
1.991111 1.920000 -0.782222 -0.593412 1.570796 0.802852 
1.848889 1.920000 -0.711111 -0.663225 1.570796 0.872665 
1.564444 1.920000 -0.782222 -0.802852 1.570796 0.802851 
1.422222 1.920000 -0.711111 -0.872665 1.570796 0.872665 
1.137777 1.920000 -0.782222 -1.012291 1.570796 0.802851 
0.995555 1.920000 -0.711111 -1.082104 1.570796 0.872665 
0.711111 1.920000 -0.782222 -1.221731 1.570796 0.802852 
0.568889 1.920000 -0.711111 -1.291544 1.570796 0.872665 
0.284444 1.920000 -0.782222 -1.431170 1.570796 0.802852 
0.142222 1.920000 -0.711111 -1.500983 1.570796 0.872665 
4.408889 1.920000 -0.924444 0.593412 1.570796 0.663225 
4.124444 1.920000 -0.995556 0.453786 1.570796 0.593412 
3.982222 1.920000 -0.924444 0.383972 1.570796 0.663225 
3.697778 1.920000 -0.995556 0.244346 1.570796 0.593412 
3.555555 1.920000 -0.924444 0.174533 1.570796 0.663225 
3.271111 1.920000 -0.995556 0.034906 1.570796 0.593412 
3.128889 1.920000 -0.924444 -0.034907 1.570796 0.663225 
2.844444 1.920000 -0.995556 -0.174533 1.570796 0.593412 
2.702222 1.920000 -0.924444 -0.244346 1.570796 0.663225 
2.417778 1.920000 -0.995556 -0.383973 1.570796 0.593412 
2.275555 1.920000 -0.924444 -0.453786 1.570796 0.663225 
1.991111 1.920000 -0.995556 -0.593412 1.570796 0.593412 
1.848889 1.920000 -0.924444 -0.663225 1.570796 0.663225 
1.564444 1.920000 -0.995556 -0.802852 1.570796 0.593412 
1.422222 1.920000 -0.924444 -0.872665 1.570796 0.663225 
1.137777 1.920000 -0.995556 -1.012291 1.570796 0.593412 
0.995555 1.920000 -0.924444 -1.082104 1.570796 0.663225 
0.711111 1.920000 -0.995556 -1.221731 1.570796 0.593412 
0.568889 1.920000 -0.924444 -1.291544 1.570796 0.663225 
0.284444 1.920000 -0.995556 -1.431170 1.570796 0.593412 
0.142222 1.920000 -0.924444 -1.500983 1.570796 0.663225 
3.982222 1.920000 -1.137778 0.383972 1.570796 0.453786 
3.697778 1.920000 -1.208889 0.244346 1.570796 0.383972 
3.555555 1.920000 -1.137778 0.174533 1.570796 0.453786 
3.271111 1.920000 -1.208889 0.034906 1.570796 0.383972 
3.128889 1.920000 -1.137778 -0.034907 1.570796 0.453786 
2.844444 1.920000 -1.208889 -0.174533 1.570796 0.383972 
2.702222 1.920000 -1.137778 -0.244346 1.570796 0.453786 
2.417778 1.920000 -1.208889 -0.383973 1.570796 0.383972 
2.275555 1.920000 -1.137778 -0.453786 1.570796 0.453786 
1.991111 1.920000 -1.208889 -0.593412 1.570796 0.383972 
1.848889 1.920000 -1.137778 -0.663225 1.570796 0.453786 
1.564444 1.920000 -1.208889 -0.802852 1.570796 0.383972 
1.422222 1.920000 -1.137778 -0.872665 1.570796 0.453786 
1.137777 1.920000 -1.208889 -1.012291 1.570796 0.383972 
0.995555 1.920000 -1.137778 -1.082104 1.570796 0.453786 
0.711111 1.920000 -1.208889 -1.221731 1.570796 0.383972 
0.568889 1.920000 -1.137778 -1.291544 1.570796 0.453786 
0.284444 1.920000 -1.208889 -1.431170 1.570796 0.383972 
0.142222 1.920000 -1.137778 -1.500983 1.570796 0.453786 
3.555555 1.920000 -1.351111 0.174533 1.570796 0.244346 
3.271111 1.920000 -1.422222 0.034906 1.570796 0.174533 
3.128889 1.920000 -1.351111 -0.034907 1.570796 0.244346 
2.844444 1.920000 -1.422222 -0.174533 1.570796 0.174533 
2.702222 1.920000 -1.351111 -0.244346 1.570796 0.244346 
2.417778 1.920000 -1.422222 -0.383973 1.570796 0.174533 
2.275555 1.920000 -1.351111 -0.453786 1.570796 0.244346 
1.991111 1.920000 -1.422222 -0.593412 1.570796 0.174533 
1.848889 1.920000 -1.351111 -0.663225 1.570796 0.244346 
