1.541228 1.770000 -0.964035 0.854293 -1.570796 -0.688946 
1.648246 1.770000 -1.014912 0.799177 -1.570796 -0.633830 
1.862281 1.770000 -0.964035 0.688946 -1.570796 -0.688946 
1.969298 1.770000 -1.014912 0.633830 -1.570796 -0.633830 
2.183333 1.770000 -0.964035 0.523599 -1.570796 -0.688946 
2.290351 1.770000 -1.014912 0.468483 -1.570796 -0.633830 
2.504386 1.770000 -0.964035 0.358252 -1.570796 -0.688946 
2.611403 1.770000 -1.014912 0.303136 -1.570796 -0.633830 
2.825438 1.770000 -0.964035 0.192905 -1.570796 -0.688946 
2.932456 1.770000 -1.014912 0.137789 -1.570796 -0.633830 
3.146491 1.770000 -0.964035 0.027558 -1.570796 -0.688946 
3.253509 1.770000 -1.014912 -0.027558 -1.570796 -0.633830 
3.467544 1.770000 -0.964035 -0.137789 -1.570796 -0.688946 
3.574561 1.770000 -1.014912 -0.192905 -1.570796 -0.633830 
3.788596 1.770000 -0.964035 -0.303136 -1.570796 -0.688946 
3.895614 1.770000 -1.014912 -0.358252 -1.570796 -0.633830 
4.109649 1.770000 -0.964035 -0.468483 -1.570796 -0.688946 
4.216667 1.770000 -1.014912 -0.523599 -1.570796 -0.633830 
4.430702 1.770000 -0.964035 -0.633830 -1.570796 -0.688946 
0.257018 1.770000 -1.116667 1.515681 -1.570796 -0.523599 
0.364035 1.770000 -1.167544 1.460565 -1.570796 -0.468483 
0.578070 1.770000 -1.116667 1.350334 -1.570796 -0.523599 
0.685088 1.770000 -1.167544 1.295218 -1.570796 -0.468483 
0.899123 1.770000 -1.116667 1.184987 -1.570796 -0.523599 
1.006140 1.770000 -1.167544 1.129871 -1.570796 -0.468483 
1.220175 1.770000 -1.116667 1.019640 -1.570796 -0.523599 
1.327193 1.770000 -1.167544 0.964524 -1.570796 -0.468483 
1.541228 1.770000 -1.116667 0.854293 -1.570796 -0.523599 
1.648246 1.770000 -1.167544 0.799177 -1.570796 -0.468483 
1.862281 1.770000 -1.116667 0.688946 -1.570796 -0.523599 
1.969298 1.770000 -1.167544 0.633830 -1.570796 -0.468483 
2.183333 1.770000 -1.116667 0.523599 -1.570796 -0.523599 
2.290351 1.770000 -1.167544 0.468483 -1.570796 -0.468483 
2.504386 1.770000 -1.116667 0.358252 -1.570796 -0.523599 
2.611403 1.770000 -1.167544 0.303136 -1.570796 -0.468483 
2.825438 1.770000 -1.116667 0.192905 -1.570796 -0.523599 
2.932456 1.770000 -1.167544 0.137789 -1.570796 -0.468483 
3.146491 1.770000 -1.116667 0.027558 -1.570796 -0.523599 
3.253509 1.770000 -1.167544 -0.027558 -1.570796 -0.468483 
3.467544 1.770000 -1.116667 -0.137789 -1.570796 -0.523599 
3.574561 1.770000 -1.167544 -0.192905 -1.570796 -0.468483 
3.788596 1.770000 -1.116667 -0.303136 -1.570796 -0.523599 
3.895614 1.770000 -1.167544 -0.358252 -1.570796 -0.468483 
4.109649 1.770000 -1.116667 -0.468483 -1.570796 -0.523599 
0.257018 1.770000 -1.269298 1.515681 -1.570796 -0.358252 
0.364035 1.770000 -1.320176 1.460565 -1.570796 -0.303136 
0.578070 1.770000 -1.269298 1.350334 -1.570796 -0.358252 
0.685088 1.770000 -1.320175 1.295218 -1.570796 -0.303136 
0.899123 1.770000 -1.269298 1.184987 -1.570796 -0.358252 
1.006140 1.770000 -1.320175 1.129871 -1.570796 -0.303136 
1.220175 1.770000 -1.269298 1.019640 -1.570796 -0.358252 
1.327193 1.770000 -1.320176 0.964524 -1.570796 -0.303136 
1.541228 1.770000 -1.269298 0.854293 -1.570796 -0.358252 
1.648246 1.770000 -1.320176 0.799177 -1.570796 -0.303136 
1.862281 1.770000 -1.269298 0.688946 -1.570796 -0.358252 
1.969298 1.770000 -1.320176 0.633830 -1.570796 -0.303136 
2.183333 1.770000 -1.269298 0.523599 -1.570796 -0.358252 
2.290351 1.770000 -1.320176 0.468483 -1.570796 -0.303136 
2.504386 1.770000 -1.269298 0.358252 -1.570796 -0.358252 
2.611403 1.770000 -1.320176 0.303136 -1.570796 -0.303136 
2.825438 1.770000 -1.269298 0.192905 -1.570796 -0.358252 
2.932456 1.770000 -1.320175 0.137789 -1.570796 -0.303136 
3.146491 1.770000 -1.269298 0.027558 -1.570796 -0.358252 
3.253509 1.770000 -1.320175 -0.027558 -1.570796 -0.303136 
3.467544 1.770000 -1.269298 -0.137789 -1.570796 -0.358252 
3.574561 1.770000 -1.320176 -0.192905 -1.570796 -0.303136 
3.788596 1.770000 -1.269298 -0.303136 -1.570796 -0.358252 
0.257018 1.770000 -1.421930 1.515681 -1.570796 -0.192905 
0.364035 1.770000 -1.472807 1.460565 -1.570796 -0.137789 
0.578070 1.770000 -1.421930 1.350334 -1.570796 -0.192905 
0.685088 1.770000 -1.472807 1.295218 -1.570796 -0.137789 
0.899123 1.770000 -1.421930 1.184987 -1.570796 -0.192905 
1.006140 1.770000 -1.472807 1.129871 -1.570796 -0.137789 
1.220175 1.770000 -1.421930 1.019640 -1.570796 -0.192905 
1.327193 1.770000 -1.472807 0.964524 -1.570796 -0.137789 
1.541228 1.770000 -1.421930 0.854293 -1.570796 -0.192905 
1.648246 1.770000 -1.472807 0.799177 -1.570796 -0.137789 
1.862281 1.770000 -1.421930 0.688946 -1.570796 -0.192905 
1.969298 1.770000 -1.472807 0.633830 -1.570796 -0.137789 
2.183333 1.770000 -1.421930 0.523599 -1.570796 -0.192905 
2.290351 1.770000 -1.472807 0.468483 -1.570796 -0.137789 
2.504386 1.770000 -1.421930 0.358252 -1.570796 -0.192905 
2.611403 1.770000 -1.472807 0.303136 -1.570796 -0.137789 
2.825438 1.770000 -1.421930 0.192905 -1.570796 -0.192905 
2.932456 1.770000 -1.472807 0.137789 -1.570796 -0.137789 
3.146492 1.770000 -1.421930 0.027558 -1.570796 -0.192905 
3.253509 1.770000 -1.472807 -0.027558 -1.570796 -0.137789 
3.467544 1.770000 -1.421930 -0.137789 -1.570796 -0.192905 
0.257018 1.770000 -1.574561 1.515681 -1.570796 -0.027558 
0.364035 1.770000 -1.625439 1.460565 -1.570796 0.027558 
0.578070 1.770000 -1.574561 1.350334 -1.570796 -0.027558 
0.685088 1.770000 -1.625439 1.295218 -1.570796 0.027558 
0.899123 1.770000 -1.574561 1.184987 -1.570796 -0.027558 
1.006140 1.770000 -1.625439 1.129871 -1.570796 0.027558 
1.220175 1.770000 -1.574561 1.019640 -1.570796 -0.027558 
1.327193 1.770000 -1.625439 0.964524 -1.570796 0.027558 
1.541228 1.770000 -1.574561 0.854293 -1.570796 -0.027558 
1.648246 1.770000 -1.625439 0.799177 -1.570796 0.027558 
1.862281 1.770000 -1.574561 0.688946 -1.570796 -0.027558 
1.969298 1.770000 -1.625439 0.633830 -1.570796 0.027558 
2.183333 1.770000 -1.574561 0.523599 -1.570796 -0.027558 
2.290351 1.770000 -1.625439 0.468483 -1.570796 0.027558 
2.504386 1.770000 -1.574561 0.358252 -1.570796 -0.027558 
2.611403 1.770000 -1.625439 0.303136 -1.570796 0.027558 
2.825439 1.770000 -1.574561 0.192905 -1.570796 -0.027558 
2.932456 1.770000 -1.625439 0.137789 -1.570796 0.027558 
3.146492 1.770000 -1.574561 0.027558 -1.570796 -0.027558 
0.257018 1.770000 -1.727193 1.515681 -1.570796 0.137789 
0.364035 1.770000 -1.778070 1.460565 -1.570796 0.192905 
0.578070 1.770000 -1.727193 1.350334 -1.570796 0.137789 
0.685088 1.770000 -1.778070 1.295218 -1.570796 0.192905 
0.899123 1.770000 -1.727193 1.184987 -1.570796 0.137789 
1.006140 1.770000 -1.778070 1.129871 -1.570796 0.192905 
1.220176 1.770000 -1.727193 1.019640 -1.570796 0.137789 
1.327193 1.770000 -1.778070 0.964524 -1.570796 0.192905 
1.541228 1.770000 -1.727193 0.854293 -1.570796 0.137789 
1.648246 1.770000 -1.778070 0.799177 -1.570796 0.192905 
1.862281 1.770000 -1.727193 0.688946 -1.570796 0.137789 
1.969298 1.770000 -1.778070 0.633830 -1.570796 0.192905 
2.183333 1.770000 -1.727193 0.523599 -1.570796 0.137789 
2.290351 1.770000 -1.778070 0.468483 -1.570796 0.192905 
2.504386 1.770000 -1.727193 0.358252 -1.570796 0.137789 
2.611403 1.770000 -1.778070 0.303136 -1.570796 0.192905 
2.825439 1.770000 -1.727193 0.192905 -1.570796 0.137789 
0.257018 1.770000 -1.879824 1.515681 -1.570796 0.303136 
0.364035 1.770000 -1.930702 1.460565 -1.570796 0.358252 
0.578070 1.770000 -1.879824 1.350334 -1.570796 0.303136 
0.685088 1.770000 -1.930702 1.295218 -1.570796 0.358252 
0.899123 1.770000 -1.879824 1.184987 -1.570796 0.303136 
1.006140 1.770000 -1.930702 1.129871 -1.570796 0.358252 
1.220176 1.770000 -1.879824 1.019640 -1.570796 0.303136 
1.327193 1.770000 -1.930702 0.964524 -1.570796 0.358252 
1.541228 1.770000 -1.879824 0.854293 -1.570796 0.303136 
1.648246 1.770000 -1.930702 0.799177 -1.570796 0.358252 
1.862281 1.770000 -1.879824 0.688946 -1.570796 0.303136 
1.969298 1.770000 -1.930702 0.633830 -1.570796 0.358252 
2.183334 1.770000 -1.879824 0.523599 -1.570796 0.303136 
2.290351 1.770000 -1.930702 0.468483 -1.570796 0.358252 
2.504386 1.770000 -1.879824 0.358252 -1.570796 0.303136 
0.257018 1.770000 -2.032456 1.515681 -1.570796 0.468483 
0.364035 1.770000 -2.083333 1.460565 -1.570796 0.523599 
0.578070 1.770000 -2.032456 1.350334 -1.570796 0.468483 
0.685088 1.770000 -2.083333 1.295218 -1.570796 0.523599 
0.899123 1.770000 -2.032456 1.184987 -1.570796 0.468483 
1.006140 1.770000 -2.083333 1.129871 -1.570796 0.523599 
1.220175 1.770000 -2.032456 1.019640 -1.570796 0.468483 
1.327193 1.770000 -2.083333 0.964524 -1.570796 0.523599 
1.541228 1.770000 -2.032456 0.854293 -1.570796 0.468483 
1.648246 1.770000 -2.083333 0.799177 -1.570796 0.523599 
1.862281 1.770000 -2.032456 0.688946 -1.570796 0.468483 
1.969298 1.770000 -2.083333 0.633830 -1.570796 0.523599 
2.183334 1.770000 -2.032456 0.523599 -1.570796 0.468483 
0.257018 1.770000 -2.185088 1.515681 -1.570796 0.633830 
0.364035 1.770000 -2.235965 1.460565 -1.570796 0.688945 
0.578070 1.770000 -2.185088 1.350334 -1.570796 0.633830 
0.685088 1.770000 -2.235965 1.295218 -1.570796 0.688946 
0.899123 1.770000 -2.185088 1.184987 -1.570796 0.633830 
1.006140 1.770000 -2.235965 1.129871 -1.570796 0.688946 
1.220175 1.770000 -2.185087 1.019640 -1.570796 0.633830 
1.327193 1.770000 -2.235965 0.964524 -1.570796 0.688946 
1.541228 1.770000 -2.185088 0.854293 -1.570796 0.633830 
1.648246 1.770000 -2.235965 0.799177 -1.570796 0.688946 
1.862281 1.770000 -2.185088 0.688946 -1.570796 0.633830 
0.257018 1.770000 -2.337719 1.515681 -1.570796 0.799177 
0.364035 1.770000 -2.388596 1.460565 -1.570796 0.854293 
0.578070 1.770000 -2.337719 1.350334 -1.570796 0.799177 
0.685088 1.770000 -2.388596 1.295218 -1.570796 0.854293 
0.899123 1.770000 -2.337719 1.184987 -1.570796 0.799177 
1.006140 1.770000 -2.388596 1.129871 -1.570796 0.854293 
1.220175 1.770000 -2.337719 1.019640 -1.570796 0.799177 
1.327193 1.770000 -2.388596 0.964524 -1.570796 0.854293 
1.541228 1.770000 -2.337719 0.854293 -1.570796 0.799177 
0.257018 1.770000 -2.490351 1.515681 -1.570796 0.964524 
0.364035 1.770000 -2.541228 1.460565 -1.570796 1.019639 
0.578070 1.770000 -2.490351 1.350334 -1.570796 0.964524 
0.685088 1.770000 -2.541228 1.295218 -1.570796 1.019640 
0.899123 1.770000 -2.490351 1.184987 -1.570796 0.964524 
1.006140 1.770000 -2.541228 1.129871 -1.570796 1.019639 
1.220175 1.770000 -2.490351 1.019640 -1.570796 0.964524 
0.257018 1.770000 -2.642982 1.515681 -1.570796 1.129871 
0.364035 1.770000 -2.693860 1.460565 -1.570796 1.184986 
0.578070 1.770000 -2.642983 1.350334 -1.570796 1.129871 
0.685088 1.770000 -2.693860 1.295218 -1.570796 1.184986 
0.899123 1.770000 -2.642982 1.184987 -1.570796 1.129871 
0.257018 1.770000 -2.795614 1.515681 -1.570796 1.295218 
0.364035 1.770000 -2.846491 1.460565 -1.570796 1.350333 
0.578070 1.770000 -2.795614 1.350334 -1.570796 1.295218 
0.257018 1.770000 -2.948246 1.515681 -1.570796 1.460565 
6.250000 1.652000 -0.246667 -1.570796 -1.780236 -1.466077 
6.250000 1.534000 -0.343333 -1.570795 -1.989675 -1.361358 
6.250000 1.475000 -0.246667 -1.570796 -2.094395 -1.466077 
6.250000 1.357000 -0.343333 -1.570795 -2.303835 -1.361358 
6.250000 1.298000 -0.246667 -1.570796 -2.408555 -1.466077 
6.250000 1.180000 -0.343333 -1.570795 -2.617994 -1.361358 
6.250000 1.121000 -0.246667 -1.570796 -2.722714 -1.466077 
6.250000 1.003000 -0.343333 -1.570795 -2.932153 -1.361358 
6.250000 0.944000 -0.246667 -1.570795 -3.036873 -1.466077 
6.250000 0.826000 -0.343333 -1.570795 -3.246313 -1.361358 
6.250000 0.767000 -0.246667 -1.570795 -3.351033 -1.466077 
6.250000 0.649000 -0.343333 -1.570795 -3.560472 -1.361358 
6.250000 0.590000 -0.246667 -1.570795 -3.665192 -1.466078 
6.250000 0.472000 -0.343333 -1.570795 -3.874632 -1.361358 
6.250000 0.413000 -0.246667 -1.570795 -3.979352 -1.466078 
6.250000 0.295000 -0.343333 -1.570794 -4.188791 -1.361358 
6.250000 0.236000 -0.246667 -1.570795 -4.293510 -1.466078 
6.250000 0.118000 -0.343333 -1.570794 -4.502951 -1.361359 
6.250001 0.059000 -0.246667 -1.570795 -4.607671 -1.466078 
6.250000 1.475000 -0.536667 -1.570794 -2.094395 -1.151919 
6.250000 1.357000 -0.633333 -1.570794 -2.303835 -1.047200 
6.250000 1.298000 -0.536667 -1.570794 -2.408555 -1.151919 
6.250000 1.180000 -0.633333 -1.570794 -2.617994 -1.047200 
6.250000 1.121000 -0.536667 -1.570794 -2.722714 -1.151919 
6.250000 1.003000 -0.633333 -1.570793 -2.932153 -1.047200 
6.250000 0.944000 -0.536667 -1.570794 -3.036873 -1.151920 
6.250000 0.826000 -0.633333 -1.570793 -3.246313 -1.047200 
6.250000 0.767000 -0.536667 -1.570794 -3.351032 -1.151920 
6.250000 0.649000 -0.633333 -1.570793 -3.560472 -1.047200 
6.250000 0.590000 -0.536667 -1.570794 -3.665192 -1.151920 
6.250000 0.472000 -0.633333 -1.570793 -3.874632 -1.047201 
6.250000 0.413000 -0.536667 -1.570794 -3.979352 -1.151920 
6.250001 0.295000 -0.633333 -1.570793 -4.188791 -1.047201 
6.250000 0.236000 -0.536667 -1.570794 -4.293510 -1.151920 
6.250000 0.118000 -0.633333 -1.570793 -4.502950 -1.047201 
6.250000 0.059000 -0.536667 -1.570793 -4.607670 -1.151920 
6.250000 1.298000 -0.826667 -1.570793 -2.408554 -0.837762 
6.250000 1.180000 -0.923333 -1.570792 -2.617994 -0.733042 
6.250000 1.121000 -0.826667 -1.570793 -2.722714 -0.837762 
6.250000 1.003000 -0.923333 -1.570792 -2.932153 -0.733043 
6.250000 0.944000 -0.826667 -1.570792 -3.036873 -0.837762 
6.250000 0.826000 -0.923333 -1.570792 -3.246313 -0.733043 
6.250000 0.767000 -0.826667 -1.570792 -3.351032 -0.837762 
6.250000 0.649000 -0.923333 -1.570792 -3.560472 -0.733043 
6.250000 0.590000 -0.826667 -1.570792 -3.665192 -0.837762 
6.250000 0.472000 -0.923333 -1.570792 -3.874631 -0.733043 
6.250000 0.413000 -0.826667 -1.570792 -3.979351 -0.837762 
6.250000 0.295000 -0.923333 -1.570791 -4.188791 -0.733043 
6.250000 0.236000 -0.826667 -1.570792 -4.293510 -0.837762 
6.250000 0.118000 -0.923333 -1.570791 -4.502950 -0.733043 
6.250000 0.059000 -0.826667 -1.570792 -4.607670 -0.837762 
6.250000 1.121000 -1.116667 -1.570791 -2.722714 -0.523604 
6.250000 1.003000 -1.213333 -1.570791 -2.932153 -0.418885 
6.250000 0.944000 -1.116667 -1.570791 -3.036873 -0.523604 
6.250000 0.826000 -1.213333 -1.570790 -3.246312 -0.418885 
6.250000 0.767000 -1.116667 -1.570791 -3.351032 -0.523604 
6.250000 0.649000 -1.213333 -1.570790 -3.560472 -0.418885 
6.250000 0.590000 -1.116667 -1.570791 -3.665192 -0.523604 
6.250000 0.472000 -1.213333 -1.570790 -3.874631 -0.418885 
6.250000 0.413000 -1.116667 -1.570791 -3.979351 -0.523604 
6.250000 0.295000 -1.213333 -1.570790 -4.188791 -0.418885 
6.250000 0.236000 -1.116667 -1.570791 -4.293510 -0.523604 
6.250000 0.118000 -1.213333 -1.570790 -4.502950 -0.418885 
6.250000 0.059000 -1.116667 -1.570791 -4.607670 -0.523605 
6.250000 0.944000 -1.406667 -1.570790 -3.036873 -0.209446 
6.250000 0.826000 -1.503333 -1.570789 -3.246312 -0.104727 
6.250000 0.767000 -1.406667 -1.570789 -3.351032 -0.209446 
6.250000 0.649000 -1.503333 -1.570789 -3.560472 -0.104727 
6.250000 0.590000 -1.406667 -1.570789 -3.665192 -0.209447 
6.250000 0.472000 -1.503333 -1.570789 -3.874631 -0.104727 
6.250000 0.413000 -1.406667 -1.570789 -3.979351 -0.209447 
6.250000 0.295000 -1.503333 -1.570789 -4.188790 -0.104727 
6.250000 0.236000 -1.406667 -1.570789 -4.293510 -0.209447 
6.250000 0.118000 -1.503333 -1.570789 -4.502950 -0.104728 
6.250000 0.059000 -1.406667 -1.570789 -4.607670 -0.209447 
6.250000 0.767000 -1.696667 -1.570788 -3.351032 0.104711 
6.250000 0.649000 -1.793333 -1.570787 -3.560472 0.209431 
6.250000 0.590000 -1.696667 -1.570788 -3.665192 0.104711 
6.250000 0.472000 -1.793333 -1.570787 -3.874631 0.209430 
6.250000 0.413000 -1.696667 -1.570788 -3.979351 0.104711 
6.250000 0.295000 -1.793333 -1.570787 -4.188790 0.209430 
6.250000 0.236000 -1.696667 -1.570788 -4.293510 0.104711 
6.250000 0.118000 -1.793333 -1.570787 -4.502950 0.209430 
6.250000 0.059000 -1.696667 -1.570788 -4.607670 0.104711 
6.250000 0.590000 -1.986667 -1.570786 -3.665191 0.418869 
6.250000 0.472000 -2.083333 -1.570786 -3.874631 0.523588 
6.250000 0.413000 -1.986667 -1.570786 -3.979351 0.418869 
6.250001 0.295000 -2.083333 -1.570786 -4.188790 0.523588 
6.250000 0.236000 -1.986667 -1.570786 -4.293510 0.418869 
6.250000 0.118000 -2.083333 -1.570786 -4.502950 0.523588 
6.250000 0.059000 -1.986667 -1.570786 -4.607670 0.418869 
6.250000 0.413000 -2.276667 -1.570785 -3.979351 0.733027 
6.250000 0.295000 -2.373333 -1.570784 -4.188790 0.837746 
6.250000 0.236000 -2.276667 -1.570785 -4.293510 0.733027 
6.250000 0.118000 -2.373333 -1.570784 -4.502950 0.837746 
6.250000 0.059000 -2.276667 -1.570785 -4.607670 0.733026 
6.250000 0.236000 -2.566667 -1.570783 -4.293509 1.047184 
6.250000 0.118000 -2.663333 -1.570783 -4.502950 1.151904 
6.250000 0.059000 -2.566667 -1.570783 -4.607669 1.047184 
6.250001 0.059000 -2.856667 -1.570782 -4.607670 1.361342 
6.250000 1.711000 -2.953333 -1.570796 -1.675516 1.466076 
6.250000 1.652000 -2.856667 -1.570795 -1.780236 1.361356 
6.250000 1.711000 -2.663333 -1.570796 -1.675516 1.151917 
6.250000 1.652000 -2.566667 -1.570795 -1.780236 1.047197 
6.250000 1.711000 -2.373333 -1.570796 -1.675516 0.837758 
6.250000 1.652000 -2.276667 -1.570795 -1.780236 0.733037 
6.250000 1.711000 -2.083333 -1.570796 -1.675516 0.523598 
6.250000 1.652000 -1.986667 -1.570795 -1.780236 0.418878 
6.250000 1.711000 -1.793333 -1.570796 -1.675516 0.209439 
6.250000 1.652000 -1.696667 -1.570795 -1.780236 0.104719 
6.250000 1.711000 -1.503333 -1.570796 -1.675516 -0.104720 
6.250000 1.652000 -1.406667 -1.570795 -1.780236 -0.209441 
6.250000 1.711000 -1.213333 -1.570796 -1.675516 -0.418880 
6.250000 1.652000 -1.116667 -1.570795 -1.780236 -0.523600 
6.250000 1.711000 -0.923333 -1.570796 -1.675516 -0.733039 
6.250000 1.652000 -0.826667 -1.570795 -1.780236 -0.837759 
6.250000 1.711000 -0.633333 -1.570796 -1.675516 -1.047198 
6.250000 1.652000 -0.536667 -1.570795 -1.780236 -1.151918 
6.250001 1.711000 -0.343333 -1.570796 -1.675516 -1.361357 
6.250000 1.534000 -2.953333 -1.570794 -1.989675 1.466074 
6.250000 1.475000 -2.856667 -1.570794 -2.094395 1.361354 
6.250000 1.534000 -2.663333 -1.570794 -1.989675 1.151915 
6.250000 1.475000 -2.566667 -1.570794 -2.094395 1.047195 
6.250000 1.534000 -2.373333 -1.570794 -1.989675 0.837756 
6.250000 1.475000 -2.276667 -1.570794 -2.094395 0.733036 
6.250000 1.534000 -2.083333 -1.570794 -1.989676 0.523597 
6.250000 1.475000 -1.986667 -1.570794 -2.094395 0.418876 
6.250000 1.534000 -1.793333 -1.570794 -1.989675 0.209437 
6.250000 1.475000 -1.696666 -1.570794 -2.094395 0.104717 
6.250000 1.534000 -1.503333 -1.570794 -1.989675 -0.104722 
6.250000 1.475000 -1.406667 -1.570794 -2.094395 -0.209442 
6.250000 1.534000 -1.213333 -1.570794 -1.989675 -0.418881 
6.250001 1.475000 -1.116667 -1.570794 -2.094395 -0.523601 
6.250000 1.534000 -0.923333 -1.570794 -1.989675 -0.733040 
6.250000 1.475000 -0.826667 -1.570794 -2.094395 -0.837761 
6.250000 1.534000 -0.633333 -1.570794 -1.989675 -1.047200 
6.250000 1.357000 -2.953333 -1.570793 -2.303834 1.466073 
6.250000 1.298000 -2.856667 -1.570792 -2.408555 1.361353 
6.250000 1.357000 -2.663333 -1.570793 -2.303835 1.151914 
6.250000 1.298000 -2.566667 -1.570792 -2.408554 1.047193 
6.250000 1.357000 -2.373333 -1.570793 -2.303835 0.837754 
6.250000 1.298000 -2.276667 -1.570792 -2.408555 0.733034 
6.250000 1.357000 -2.083333 -1.570793 -2.303834 0.523595 
6.250000 1.298000 -1.986667 -1.570792 -2.408554 0.418875 
6.250000 1.357000 -1.793333 -1.570793 -2.303834 0.209436 
6.250000 1.298000 -1.696667 -1.570792 -2.408554 0.104716 
6.250000 1.357000 -1.503333 -1.570793 -2.303835 -0.104723 
6.250000 1.298000 -1.406667 -1.570792 -2.408554 -0.209444 
6.250000 1.357000 -1.213333 -1.570793 -2.303835 -0.418883 
6.250000 1.298000 -1.116667 -1.570792 -2.408554 -0.523603 
6.250000 1.357000 -0.923333 -1.570793 -2.303834 -0.733042 
6.250000 1.180000 -2.953333 -1.570791 -2.617994 1.466071 
6.250000 1.121000 -2.856667 -1.570791 -2.722714 1.361351 
6.250000 1.180000 -2.663333 -1.570791 -2.617994 1.151912 
6.250000 1.121000 -2.566667 -1.570791 -2.722713 1.047192 
6.250000 1.180000 -2.373333 -1.570791 -2.617994 0.837753 
6.250000 1.121000 -2.276667 -1.570791 -2.722713 0.733032 
6.250000 1.180000 -2.083333 -1.570791 -2.617994 0.523593 
6.250000 1.121000 -1.986666 -1.570791 -2.722713 0.418873 
6.250000 1.180000 -1.793333 -1.570791 -2.617994 0.209434 
6.250000 1.121000 -1.696667 -1.570791 -2.722713 0.104714 
6.250000 1.180000 -1.503333 -1.570791 -2.617994 -0.104725 
6.250000 1.121000 -1.406667 -1.570791 -2.722713 -0.209445 
6.250000 1.180000 -1.213333 -1.570791 -2.617994 -0.418884 
6.250000 1.003000 -2.953333 -1.570790 -2.932153 1.466070 
6.250000 0.944000 -2.856667 -1.570789 -3.036873 1.361349 
6.250000 1.003000 -2.663333 -1.570789 -2.932153 1.151910 
6.250000 0.944000 -2.566667 -1.570789 -3.036873 1.047190 
6.250000 1.003000 -2.373333 -1.570790 -2.932153 0.837751 
6.250000 0.944000 -2.276667 -1.570789 -3.036873 0.733031 
6.250000 1.003000 -2.083333 -1.570789 -2.932153 0.523592 
6.250000 0.944000 -1.986667 -1.570789 -3.036873 0.418872 
6.250000 1.003000 -1.793333 -1.570789 -2.932153 0.209433 
6.250000 0.944000 -1.696667 -1.570789 -3.036873 0.104712 
6.250000 1.003000 -1.503333 -1.570790 -2.932153 -0.104727 
6.250000 0.826000 -2.953333 -1.570788 -3.246312 1.466068 
6.250000 0.767000 -2.856667 -1.570787 -3.351032 1.361348 
6.250000 0.826000 -2.663333 -1.570788 -3.246312 1.151909 
6.250000 0.767000 -2.566667 -1.570787 -3.351032 1.047189 
6.250000 0.826000 -2.373333 -1.570788 -3.246313 0.837750 
6.250000 0.767000 -2.276666 -1.570787 -3.351032 0.733029 
6.250000 0.826000 -2.083333 -1.570788 -3.246312 0.523590 
6.250000 0.767000 -1.986666 -1.570787 -3.351032 0.418870 
6.250000 0.826000 -1.793334 -1.570788 -3.246312 0.209431 
6.250000 0.649000 -2.953333 -1.570786 -3.560472 1.466066 
6.250000 0.590000 -2.856667 -1.570786 -3.665192 1.361346 
6.250000 0.649000 -2.663333 -1.570786 -3.560472 1.151907 
6.250001 0.590000 -2.566667 -1.570786 -3.665191 1.047187 
6.250000 0.649000 -2.373333 -1.570786 -3.560472 0.837748 
6.250000 0.590000 -2.276667 -1.570786 -3.665191 0.733028 
6.250000 0.649000 -2.083333 -1.570786 -3.560472 0.523589 
6.250000 0.472000 -2.953333 -1.570785 -3.874631 1.466065 
6.250000 0.413000 -2.856666 -1.570784 -3.979351 1.361345 
6.250000 0.472000 -2.663333 -1.570785 -3.874631 1.151906 
6.250000 0.413000 -2.566667 -1.570784 -3.979351 1.047185 
6.250000 0.472000 -2.373333 -1.570785 -3.874631 0.837746 
6.250000 0.295000 -2.953333 -1.570783 -4.188790 1.466063 
6.250000 0.236000 -2.856667 -1.570783 -4.293510 1.361343 
6.250000 0.295000 -2.663333 -1.570783 -4.188790 1.151904 
6.250001 0.118000 -2.953334 -1.570782 -4.502950 1.466062 
6.400000 1.803636 -3.103030 1.570797 1.380397 -1.475597 
6.400000 1.687273 -3.006061 1.570797 1.189997 -1.380397 
6.400000 1.629091 -3.103030 1.570797 1.094797 -1.475597 
6.400000 1.512727 -3.006061 1.570797 0.904398 -1.380398 
6.400000 1.454546 -3.103030 1.570797 0.809198 -1.475598 
6.400000 1.338182 -3.006061 1.570798 0.618799 -1.380398 
6.400001 1.280000 -3.103030 1.570798 0.523599 -1.475598 
6.400000 1.163637 -3.006061 1.570798 0.333199 -1.380399 
6.400001 1.105455 -3.103030 1.570798 0.238000 -1.475599 
6.400001 0.989091 -3.006061 1.570799 0.047600 -1.380399 
6.400000 0.930910 -3.103030 1.570799 -0.047600 -1.475599 
6.400000 0.814546 -3.006061 1.570799 -0.237999 -1.380399 
6.400001 0.756364 -3.103030 1.570799 -0.333199 -1.475600 
6.400001 0.640001 -3.006061 1.570800 -0.523599 -1.380400 
6.400000 0.581819 -3.103030 1.570800 -0.618798 -1.475600 
6.400000 0.465455 -3.006061 1.570800 -0.809198 -1.380400 
6.400000 0.407273 -3.103030 1.570800 -0.904398 -1.475600 
6.400000 0.290910 -3.006061 1.570800 -1.094797 -1.380401 
6.400000 0.232728 -3.103030 1.570801 -1.189997 -1.475601 
6.400000 0.116364 -3.006061 1.570801 -1.380397 -1.380401 
6.400000 0.058183 -3.103030 1.570801 -1.475596 -1.475602 
6.400000 1.629091 -2.812121 1.570796 1.094798 -1.189997 
6.400000 1.512727 -2.715152 1.570797 0.904398 -1.094798 
6.400000 1.454545 -2.812121 1.570797 0.809198 -1.189998 
6.400000 1.338182 -2.715152 1.570797 0.618799 -1.094798 
6.400001 1.280000 -2.812121 1.570798 0.523599 -1.189998 
6.400000 1.163636 -2.715152 1.570798 0.333200 -1.094799 
6.400000 1.105455 -2.812121 1.570798 0.238000 -1.189999 
6.400000 0.989091 -2.715152 1.570798 0.047600 -1.094799 
6.400000 0.930909 -2.812121 1.570798 -0.047600 -1.189999 
6.400001 0.814546 -2.715152 1.570799 -0.237999 -1.094800 
6.400001 0.756364 -2.812121 1.570799 -0.333199 -1.190000 
6.400000 0.640001 -2.715152 1.570799 -0.523598 -1.094800 
6.400000 0.581819 -2.812121 1.570799 -0.618798 -1.190000 
6.400000 0.465455 -2.715152 1.570799 -0.809198 -1.094801 
6.400001 0.407273 -2.812121 1.570800 -0.904398 -1.190001 
6.400000 0.290910 -2.715152 1.570800 -1.094797 -1.094801 
6.400001 0.232728 -2.812121 1.570800 -1.189997 -1.190001 
6.400000 0.116364 -2.715152 1.570800 -1.380396 -1.094802 
6.400001 0.058183 -2.812121 1.570801 -1.475596 -1.190002 
6.400000 1.454545 -2.521212 1.570796 0.809198 -0.904398 
6.400000 1.338182 -2.424242 1.570797 0.618799 -0.809198 
6.400001 1.280000 -2.521212 1.570797 0.523599 -0.904399 
6.400000 1.163636 -2.424242 1.570797 0.333200 -0.809199 
6.400000 1.105455 -2.521212 1.570797 0.238000 -0.904399 
6.400000 0.989091 -2.424242 1.570798 0.047600 -0.809199 
6.400000 0.930909 -2.521212 1.570798 -0.047599 -0.904400 
6.400001 0.814546 -2.424242 1.570798 -0.237999 -0.809200 
6.400001 0.756364 -2.521212 1.570798 -0.333199 -0.904400 
6.400001 0.640000 -2.424242 1.570799 -0.523598 -0.809200 
6.400000 0.581819 -2.521212 1.570799 -0.618798 -0.904400 
6.400000 0.465455 -2.424242 1.570799 -0.809198 -0.809201 
6.400000 0.407273 -2.521212 1.570799 -0.904397 -0.904401 
6.400000 0.290910 -2.424242 1.570799 -1.094797 -0.809201 
6.400001 0.232728 -2.521212 1.570800 -1.189997 -0.904402 
6.400000 0.116364 -2.424242 1.570800 -1.380396 -0.809202 
6.400001 0.058183 -2.521212 1.570800 -1.475596 -0.904402 
6.400000 1.280000 -2.230303 1.570796 0.523599 -0.618799 
6.400000 1.163636 -2.133333 1.570797 0.333200 -0.523599 
6.400000 1.105455 -2.230303 1.570797 0.238000 -0.618799 
6.400000 0.989091 -2.133333 1.570797 0.047600 -0.523600 
6.400000 0.930909 -2.230303 1.570797 -0.047599 -0.618800 
6.400001 0.814546 -2.133333 1.570798 -0.237999 -0.523600 
6.400001 0.756364 -2.230303 1.570798 -0.333199 -0.618800 
6.400001 0.640000 -2.133333 1.570798 -0.523598 -0.523601 
6.400000 0.581819 -2.230303 1.570798 -0.618798 -0.618801 
6.400000 0.465455 -2.133333 1.570799 -0.809197 -0.523601 
6.400000 0.407273 -2.230303 1.570799 -0.904397 -0.618801 
6.400000 0.290910 -2.133333 1.570799 -1.094797 -0.523601 
6.400000 0.232728 -2.230303 1.570799 -1.189996 -0.618802 
6.400000 0.116364 -2.133333 1.570800 -1.380396 -0.523602 
6.400001 0.058183 -2.230303 1.570800 -1.475596 -0.618802 
6.400001 1.105454 -1.939394 1.570796 0.238000 -0.333199 
6.400000 0.989091 -1.842424 1.570797 0.047601 -0.238000 
6.400000 0.930909 -1.939394 1.570797 -0.047599 -0.333200 
6.400000 0.814546 -1.842424 1.570797 -0.237999 -0.238000 
6.400001 0.756364 -1.939394 1.570797 -0.333198 -0.333200 
6.400001 0.640000 -1.842424 1.570798 -0.523598 -0.238001 
6.400001 0.581818 -1.939394 1.570798 -0.618798 -0.333201 
6.400000 0.465455 -1.842424 1.570798 -0.809197 -0.238001 
6.400000 0.407273 -1.939394 1.570798 -0.904397 -0.333201 
6.400000 0.290909 -1.842424 1.570799 -1.094797 -0.238002 
6.400000 0.232728 -1.939394 1.570799 -1.189996 -0.333202 
6.400000 0.116364 -1.842424 1.570799 -1.380396 -0.238002 
6.400000 0.058182 -1.939394 1.570799 -1.475596 -0.333202 
6.400000 0.930909 -1.648485 1.570796 -0.047599 -0.047600 
6.400001 0.814545 -1.551515 1.570797 -0.237999 0.047600 
6.400001 0.756364 -1.648485 1.570797 -0.333198 -0.047601 
6.400001 0.640000 -1.551515 1.570797 -0.523598 0.047599 
6.400000 0.581818 -1.648485 1.570797 -0.618798 -0.047601 
6.400001 0.465455 -1.551515 1.570798 -0.809197 0.047599 
6.400000 0.407273 -1.648485 1.570798 -0.904397 -0.047601 
6.400000 0.290909 -1.551515 1.570798 -1.094797 0.047598 
6.400000 0.232728 -1.648485 1.570798 -1.189996 -0.047602 
6.400001 0.116364 -1.551515 1.570799 -1.380396 0.047598 
6.400000 0.058182 -1.648485 1.570799 -1.475596 -0.047602 
6.400001 0.756364 -1.357576 1.570796 -0.333198 0.237999 
6.400000 0.640000 -1.260606 1.570796 -0.523598 0.333199 
6.400000 0.581818 -1.357576 1.570797 -0.618798 0.237999 
6.400000 0.465455 -1.260606 1.570797 -0.809197 0.333198 
6.400000 0.407273 -1.357576 1.570797 -0.904397 0.237998 
6.400000 0.290909 -1.260606 1.570797 -1.094796 0.333198 
6.400000 0.232728 -1.357576 1.570798 -1.189996 0.237998 
6.400000 0.116364 -1.260606 1.570798 -1.380395 0.333197 
6.400000 0.058182 -1.357576 1.570798 -1.475595 0.237997 
6.400000 0.581818 -1.066667 1.570796 -0.618797 0.523599 
6.400000 0.465455 -0.969697 1.570796 -0.809197 0.618798 
6.400001 0.407273 -1.066667 1.570797 -0.904397 0.523598 
6.400000 0.290909 -0.969697 1.570797 -1.094796 0.618798 
6.400001 0.232727 -1.066667 1.570797 -1.189996 0.523598 
6.400000 0.116364 -0.969697 1.570798 -1.380395 0.618797 
6.400001 0.058182 -1.066667 1.570798 -1.475595 0.523597 
6.400000 0.407273 -0.775757 1.570796 -0.904397 0.809198 
6.400000 0.290909 -0.678788 1.570796 -1.094796 0.904398 
6.400001 0.232727 -0.775757 1.570797 -1.189996 0.809198 
6.400000 0.116364 -0.678788 1.570797 -1.380396 0.904397 
6.400001 0.058182 -0.775758 1.570797 -1.475595 0.809197 
6.400000 0.232727 -0.484848 1.570796 -1.189996 1.094797 
6.400000 0.116364 -0.387879 1.570797 -1.380395 1.189997 
6.400000 0.058182 -0.484848 1.570797 -1.475595 1.094797 
6.400000 0.058182 -0.193939 1.570796 -1.475595 1.380397 
6.400000 1.856000 -0.106667 1.570796 1.466077 1.466077 
6.400000 1.792000 -0.213333 1.570796 1.361357 1.361357 
6.400000 1.856000 -0.426667 1.570796 1.466077 1.151917 
6.400000 1.792000 -0.533333 1.570796 1.361357 1.047198 
6.400001 1.856000 -0.746667 1.570796 1.466077 0.837758 
6.400001 1.792000 -0.853333 1.570796 1.361357 0.733038 
6.400000 1.856000 -1.066667 1.570796 1.466077 0.523599 
6.400001 1.792000 -1.173333 1.570796 1.361357 0.418879 
6.400001 1.856000 -1.386667 1.570796 1.466077 0.209440 
6.400000 1.792000 -1.493333 1.570796 1.361357 0.104720 
6.400001 1.856000 -1.706667 1.570796 1.466077 -0.104720 
6.400000 1.792000 -1.813333 1.570796 1.361357 -0.209440 
6.400000 1.856000 -2.026667 1.570796 1.466077 -0.418879 
6.400000 1.792000 -2.133333 1.570796 1.361357 -0.523599 
6.400000 1.856000 -2.346667 1.570796 1.466077 -0.733038 
6.400000 1.792000 -2.453333 1.570796 1.361357 -0.837758 
6.400000 1.856000 -2.666667 1.570796 1.466077 -1.047198 
6.400001 1.792000 -2.773334 1.570797 1.361357 -1.151917 
6.400000 1.856000 -2.986667 1.570796 1.466077 -1.361357 
6.400000 1.664000 -0.106667 1.570796 1.151917 1.466077 
6.400000 1.600000 -0.213333 1.570796 1.047198 1.361357 
6.400001 1.664000 -0.426667 1.570796 1.151918 1.151917 
6.400001 1.600000 -0.533333 1.570796 1.047198 1.047198 
6.400000 1.664000 -0.746667 1.570796 1.151918 0.837758 
6.400001 1.600000 -0.853333 1.570796 1.047198 0.733038 
6.400001 1.664000 -1.066667 1.570796 1.151918 0.523599 
6.400000 1.600000 -1.173333 1.570796 1.047198 0.418879 
6.400000 1.664000 -1.386667 1.570796 1.151917 0.209440 
6.400000 1.600000 -1.493333 1.570796 1.047198 0.104720 
6.400000 1.664000 -1.706667 1.570796 1.151918 -0.104720 
6.400000 1.600000 -1.813333 1.570796 1.047198 -0.209440 
6.400001 1.664000 -2.026667 1.570796 1.151918 -0.418879 
6.400000 1.600000 -2.133333 1.570796 1.047198 -0.523599 
6.400001 1.664000 -2.346667 1.570796 1.151918 -0.733038 
6.400000 1.600000 -2.453333 1.570796 1.047198 -0.837758 
6.400000 1.664000 -2.666667 1.570796 1.151917 -1.047198 
6.400001 1.472000 -0.106667 1.570796 0.837758 1.466077 
6.400001 1.408000 -0.213333 1.570796 0.733039 1.361357 
6.400000 1.472000 -0.426667 1.570796 0.837758 1.151917 
6.400001 1.408000 -0.533333 1.570796 0.733039 1.047198 
6.400001 1.472000 -0.746667 1.570796 0.837759 0.837758 
6.400001 1.408000 -0.853333 1.570796 0.733039 0.733038 
6.400000 1.472000 -1.066667 1.570796 0.837758 0.523599 
6.400001 1.408000 -1.173333 1.570796 0.733039 0.418879 
6.400000 1.472000 -1.386667 1.570796 0.837758 0.209439 
6.400000 1.408000 -1.493333 1.570796 0.733039 0.104720 
6.400000 1.472000 -1.706667 1.570796 0.837759 -0.104720 
6.400000 1.408000 -1.813333 1.570796 0.733039 -0.209440 
6.400001 1.472000 -2.026667 1.570796 0.837759 -0.418879 
6.400001 1.408000 -2.133333 1.570796 0.733039 -0.523599 
6.400001 1.472000 -2.346667 1.570796 0.837758 -0.733038 
6.400000 1.280000 -0.106667 1.570796 0.523599 1.466077 
6.400001 1.216000 -0.213333 1.570796 0.418880 1.361357 
6.400001 1.280000 -0.426667 1.570796 0.523599 1.151917 
6.400000 1.216000 -0.533333 1.570796 0.418880 1.047198 
6.400001 1.280000 -0.746667 1.570796 0.523599 0.837758 
6.400001 1.216000 -0.853333 1.570796 0.418880 0.733038 
6.400000 1.280000 -1.066667 1.570796 0.523599 0.523599 
6.400000 1.216000 -1.173333 1.570796 0.418880 0.418879 
6.400000 1.280000 -1.386667 1.570796 0.523599 0.209440 
6.400000 1.216000 -1.493333 1.570796 0.418880 0.104720 
6.400001 1.280000 -1.706667 1.570796 0.523599 -0.104720 
6.400000 1.216000 -1.813333 1.570796 0.418880 -0.209440 
6.400001 1.280000 -2.026667 1.570796 0.523599 -0.418879 
6.400001 1.088000 -0.106667 1.570796 0.209440 1.466077 
6.400000 1.024000 -0.213333 1.570796 0.104721 1.361357 
6.400000 1.088000 -0.426667 1.570796 0.209440 1.151917 
6.400000 1.024000 -0.533333 1.570796 0.104721 1.047197 
6.400000 1.088000 -0.746667 1.570796 0.209440 0.837758 
6.400000 1.024000 -0.853333 1.570796 0.104721 0.733038 
6.400000 1.088000 -1.066667 1.570796 0.209440 0.523599 
6.400000 1.024000 -1.173333 1.570796 0.104721 0.418879 
6.400000 1.088000 -1.386667 1.570796 0.209440 0.209439 
6.400000 1.024000 -1.493333 1.570796 0.104721 0.104720 
6.400001 1.088000 -1.706667 1.570796 0.209440 -0.104720 
6.400001 0.896000 -0.106667 1.570796 -0.104719 1.466077 
6.400000 0.832000 -0.213333 1.570796 -0.209439 1.361357 
6.400000 0.896000 -0.426667 1.570796 -0.104719 1.151917 
6.400000 0.832000 -0.533333 1.570796 -0.209439 1.047197 
6.400001 0.896000 -0.746667 1.570796 -0.104719 0.837758 
6.400000 0.832000 -0.853333 1.570796 -0.209439 0.733038 
6.400001 0.896000 -1.066667 1.570796 -0.104719 0.523599 
6.400000 0.832000 -1.173333 1.570796 -0.209439 0.418879 
6.400001 0.896000 -1.386667 1.570796 -0.104719 0.209440 
6.400000 0.704000 -0.106667 1.570796 -0.418878 1.466076 
6.400000 0.640000 -0.213333 1.570796 -0.523598 1.361357 
6.400000 0.704000 -0.426667 1.570796 -0.418878 1.151917 
6.400000 0.640000 -0.533333 1.570796 -0.523598 1.047198 
6.400000 0.704000 -0.746667 1.570796 -0.418878 0.837758 
6.400001 0.640000 -0.853333 1.570796 -0.523598 0.733038 
6.400000 0.704000 -1.066667 1.570796 -0.418878 0.523599 
6.400000 0.512000 -0.106667 1.570796 -0.733037 1.466076 
6.400000 0.448000 -0.213333 1.570796 -0.837757 1.361357 
6.400001 0.512000 -0.426667 1.570796 -0.733037 1.151917 
6.400000 0.448000 -0.533333 1.570796 -0.837757 1.047197 
6.400001 0.512000 -0.746667 1.570796 -0.733037 0.837758 
6.400000 0.320000 -0.106667 1.570796 -1.047196 1.466076 
6.400001 0.256000 -0.213333 1.570796 -1.151916 1.361357 
6.400000 0.320000 -0.426667 1.570796 -1.047196 1.151917 
6.400000 0.128000 -0.106667 1.570796 -1.361355 1.466076 
6.186667 1.920000 -0.053333 1.466077 1.570796 1.518437 
5.973333 1.920000 -0.106667 1.361357 1.570796 1.466077 
5.866667 1.920000 -0.053333 1.308997 1.570796 1.518437 
5.653334 1.920000 -0.106667 1.204277 1.570796 1.466077 
5.546667 1.920000 -0.053333 1.151917 1.570796 1.518436 
5.333333 1.920000 -0.106667 1.047197 1.570796 1.466077 
5.226667 1.920000 -0.053333 0.994838 1.570796 1.518436 
5.013333 1.920000 -0.106667 0.890118 1.570796 1.466077 
4.906667 1.920000 -0.053333 0.837758 1.570796 1.518436 
4.693334 1.920000 -0.106667 0.733038 1.570796 1.466077 
4.586667 1.920000 -0.053333 0.680678 1.570796 1.518437 
4.373333 1.920000 -0.106667 0.575959 1.570796 1.466077 
4.266666 1.920000 -0.053333 0.523599 1.570796 1.518436 
4.053333 1.920000 -0.106667 0.418879 1.570796 1.466077 
3.946667 1.920000 -0.053333 0.366519 1.570796 1.518437 
3.733333 1.920000 -0.106667 0.261799 1.570796 1.466077 
3.626667 1.920000 -0.053333 0.209439 1.570796 1.518436 
3.413333 1.920000 -0.106667 0.104720 1.570796 1.466077 
3.306667 1.920000 -0.053333 0.052360 1.570796 1.518437 
3.093333 1.920000 -0.106667 -0.052360 1.570796 1.466077 
2.986667 1.920000 -0.053333 -0.104720 1.570796 1.518436 
2.773333 1.920000 -0.106667 -0.209440 1.570796 1.466077 
2.666667 1.920000 -0.053333 -0.261800 1.570796 1.518436 
2.453333 1.920000 -0.106667 -0.366519 1.570796 1.466077 
2.346667 1.920000 -0.053333 -0.418879 1.570796 1.518437 
2.133333 1.920000 -0.106667 -0.523599 1.570796 1.466077 
2.026666 1.920000 -0.053333 -0.575959 1.570796 1.518437 
1.813333 1.920000 -0.106667 -0.680679 1.570796 1.466077 
1.706667 1.920000 -0.053333 -0.733038 1.570796 1.518437 
1.493333 1.920000 -0.106667 -0.837758 1.570796 1.466077 
1.386667 1.920000 -0.053333 -0.890118 1.570796 1.518437 
1.173333 1.920000 -0.106667 -0.994838 1.570796 1.466077 
1.066666 1.920000 -0.053333 -1.047198 1.570796 1.518437 
0.853333 1.920000 -0.106667 -1.151917 1.570796 1.466077 
0.746666 1.920000 -0.053333 -1.204278 1.570796 1.518437 
0.533333 1.920000 -0.106667 -1.308997 1.570796 1.466077 
0.426666 1.920000 -0.053333 -1.361357 1.570796 1.518437 
0.213333 1.920000 -0.106667 -1.466077 1.570796 1.466077 
0.106667 1.920000 -0.053333 -1.518437 1.570796 1.518437 
5.866667 1.920000 -0.213333 1.308997 1.570796 1.361357 
5.653334 1.920000 -0.266667 1.204277 1.570796 1.308997 
5.546667 1.920000 -0.213333 1.151917 1.570796 1.361357 
5.333333 1.920000 -0.266667 1.047198 1.570796 1.308997 
5.226667 1.920000 -0.213333 0.994838 1.570796 1.361357 
5.013333 1.920000 -0.266667 0.890118 1.570796 1.308997 
4.906667 1.920000 -0.213333 0.837758 1.570796 1.361357 
4.693334 1.920000 -0.266667 0.733038 1.570796 1.308997 
4.586667 1.920000 -0.213333 0.680678 1.570796 1.361357 
4.373333 1.920000 -0.266667 0.575959 1.570796 1.308997 
4.266666 1.920000 -0.213333 0.523599 1.570796 1.361357 
4.053333 1.920000 -0.266667 0.418879 1.570796 1.308997 
3.946667 1.920000 -0.213333 0.366519 1.570796 1.361357 
3.733334 1.920000 -0.266667 0.261799 1.570796 1.308997 
3.626667 1.920000 -0.213333 0.209439 1.570796 1.361357 
3.413333 1.920000 -0.266667 0.104720 1.570796 1.308997 
3.306667 1.920000 -0.213333 0.052360 1.570796 1.361357 
3.093333 1.920000 -0.266667 -0.052360 1.570796 1.308997 
2.986667 1.920000 -0.213333 -0.104720 1.570796 1.361357 
2.773333 1.920000 -0.266667 -0.209440 1.570796 1.308997 
2.666667 1.920000 -0.213333 -0.261799 1.570796 1.361357 
2.453333 1.920000 -0.266667 -0.366519 1.570796 1.308997 
2.346667 1.920000 -0.213333 -0.418879 1.570796 1.361357 
2.133333 1.920000 -0.266667 -0.523599 1.570796 1.308997 
2.026666 1.920000 -0.213333 -0.575959 1.570796 1.361357 
1.813333 1.920000 -0.266667 -0.680679 1.570796 1.308997 
1.706666 1.920000 -0.213333 -0.733038 1.570796 1.361357 
1.493333 1.920000 -0.266667 -0.837758 1.570796 1.308997 
1.386667 1.920000 -0.213333 -0.890118 1.570796 1.361357 
1.173333 1.920000 -0.266667 -0.994838 1.570796 1.308997 
1.066666 1.920000 -0.213333 -1.047198 1.570796 1.361357 
0.853333 1.920000 -0.266667 -1.151917 1.570796 1.308997 
0.746666 1.920000 -0.213333 -1.204277 1.570796 1.361357 
0.533333 1.920000 -0.266667 -1.308997 1.570796 1.308997 
0.426666 1.920000 -0.213333 -1.361357 1.570796 1.361357 
0.213333 1.920000 -0.266667 -1.466077 1.570796 1.308997 
0.106667 1.920000 -0.213333 -1.518437 1.570796 1.361357 
5.546667 1.920000 -0.373333 1.151917 1.570796 1.204277 
5.333333 1.920000 -0.426667 1.047197 1.570796 1.151917 
5.226667 1.920000 -0.373333 0.994838 1.570796 1.204277 
5.013333 1.920000 -0.426667 0.890118 1.570796 1.151917 
4.906667 1.920000 -0.373333 0.837758 1.570796 1.204277 
4.693334 1.920000 -0.426667 0.733038 1.570796 1.151917 
4.586667 1.920000 -0.373333 0.680678 1.570796 1.204277 
4.373333 1.920000 -0.426667 0.575959 1.570796 1.151917 
4.266666 1.920000 -0.373333 0.523599 1.570796 1.204277 
4.053333 1.920000 -0.426667 0.418879 1.570796 1.151917 
3.946667 1.920000 -0.373333 0.366519 1.570796 1.204277 
3.733333 1.920000 -0.426667 0.261799 1.570796 1.151917 
3.626667 1.920000 -0.373333 0.209439 1.570796 1.204277 
3.413333 1.920000 -0.426667 0.104720 1.570796 1.151917 
3.306667 1.920000 -0.373333 0.052360 1.570796 1.204277 
3.093333 1.920000 -0.426667 -0.052360 1.570796 1.151917 
2.986667 1.920000 -0.373333 -0.104720 1.570796 1.204277 
2.773333 1.920000 -0.426667 -0.209440 1.570796 1.151917 
2.666667 1.920000 -0.373333 -0.261800 1.570796 1.204277 
2.453333 1.920000 -0.426667 -0.366519 1.570796 1.151917 
2.346667 1.920000 -0.373333 -0.418879 1.570796 1.204277 
2.133333 1.920000 -0.426667 -0.523599 1.570796 1.151917 
2.026666 1.920000 -0.373333 -0.575959 1.570796 1.204277 
1.813333 1.920000 -0.426667 -0.680679 1.570796 1.151917 
1.706666 1.920000 -0.373333 -0.733039 1.570796 1.204277 
1.493333 1.920000 -0.426667 -0.837758 1.570796 1.151917 
1.386666 1.920000 -0.373333 -0.890118 1.570796 1.204277 
1.173333 1.920000 -0.426667 -0.994838 1.570796 1.151917 
1.066666 1.920000 -0.373333 -1.047198 1.570796 1.204277 
0.853333 1.920000 -0.426667 -1.151917 1.570796 1.151917 
0.746667 1.920000 -0.373333 -1.204277 1.570796 1.204277 
0.533333 1.920000 -0.426667 -1.308997 1.570796 1.151917 
0.426666 1.920000 -0.373333 -1.361357 1.570796 1.204277 
0.213333 1.920000 -0.426667 -1.466077 1.570796 1.151917 
0.106667 1.920000 -0.373333 -1.518437 1.570796 1.204277 
5.226667 1.920000 -0.533333 0.994838 1.570796 1.047198 
5.013333 1.920000 -0.586667 0.890118 1.570796 0.994838 
4.906667 1.920000 -0.533333 0.837758 1.570796 1.047198 
4.693334 1.920000 -0.586667 0.733038 1.570796 0.994838 
4.586667 1.920000 -0.533333 0.680678 1.570796 1.047198 
4.373333 1.920000 -0.586667 0.575959 1.570796 0.994838 
4.266666 1.920000 -0.533333 0.523599 1.570796 1.047197 
4.053333 1.920000 -0.586667 0.418879 1.570796 0.994838 
3.946667 1.920000 -0.533333 0.366519 1.570796 1.047198 
3.733334 1.920000 -0.586667 0.261799 1.570796 0.994838 
3.626667 1.920000 -0.533333 0.209439 1.570796 1.047198 
3.413333 1.920000 -0.586667 0.104720 1.570796 0.994838 
3.306667 1.920000 -0.533333 0.052360 1.570796 1.047198 
3.093333 1.920000 -0.586667 -0.052360 1.570796 0.994838 
2.986667 1.920000 -0.533333 -0.104720 1.570796 1.047198 
2.773333 1.920000 -0.586667 -0.209440 1.570796 0.994838 
2.666667 1.920000 -0.533333 -0.261799 1.570796 1.047198 
2.453333 1.920000 -0.586667 -0.366519 1.570796 0.994838 
2.346667 1.920000 -0.533333 -0.418879 1.570796 1.047198 
2.133333 1.920000 -0.586667 -0.523599 1.570796 0.994838 
2.026667 1.920000 -0.533333 -0.575959 1.570796 1.047198 
1.813333 1.920000 -0.586667 -0.680678 1.570796 0.994838 
1.706667 1.920000 -0.533333 -0.733038 1.570796 1.047198 
1.493333 1.920000 -0.586667 -0.837758 1.570796 0.994838 
1.386667 1.920000 -0.533333 -0.890118 1.570796 1.047198 
1.173333 1.920000 -0.586667 -0.994838 1.570796 0.994838 
1.066666 1.920000 -0.533333 -1.047198 1.570796 1.047198 
0.853333 1.920000 -0.586667 -1.151917 1.570796 0.994838 
0.746667 1.920000 -0.533333 -1.204277 1.570796 1.047198 
0.533333 1.920000 -0.586667 -1.308997 1.570796 0.994838 
0.426667 1.920000 -0.533333 -1.361357 1.570796 1.047198 
0.213333 1.920000 -0.586667 -1.466077 1.570796 0.994838 
0.106667 1.920000 -0.533333 -1.518437 1.570796 1.047198 
4.906667 1.920000 -0.693333 0.837758 1.570796 0.890118 
4.693334 1.920000 -0.746667 0.733038 1.570796 0.837758 
4.586667 1.920000 -0.693333 0.680678 1.570796 0.890118 
4.373333 1.920000 -0.746667 0.575959 1.570796 0.837758 
4.266666 1.920000 -0.693333 0.523599 1.570796 0.890118 
4.053333 1.920000 -0.746667 0.418879 1.570796 0.837758 
3.946667 1.920000 -0.693333 0.366519 1.570796 0.890118 
3.733334 1.920000 -0.746667 0.261799 1.570796 0.837758 
3.626667 1.920000 -0.693333 0.209440 1.570796 0.890118 
3.413333 1.920000 -0.746667 0.104720 1.570796 0.837758 
3.306667 1.920000 -0.693333 0.052360 1.570796 0.890118 
3.093333 1.920000 -0.746667 -0.052360 1.570796 0.837758 
2.986667 1.920000 -0.693333 -0.104720 1.570796 0.890118 
2.773333 1.920000 -0.746667 -0.209440 1.570796 0.837758 
2.666667 1.920000 -0.693333 -0.261799 1.570796 0.890118 
2.453333 1.920000 -0.746667 -0.366519 1.570796 0.837758 
2.346667 1.920000 -0.693333 -0.418879 1.570796 0.890118 
2.133333 1.920000 -0.746667 -0.523599 1.570796 0.837758 
2.026666 1.920000 -0.693333 -0.575959 1.570796 0.890118 
1.813333 1.920000 -0.746667 -0.680678 1.570796 0.837758 
1.706667 1.920000 -0.693333 -0.733038 1.570796 0.890118 
1.493333 1.920000 -0.746667 -0.837758 1.570796 0.837758 
1.386667 1.920000 -0.693333 -0.890118 1.570796 0.890118 
1.173333 1.920000 -0.746667 -0.994838 1.570796 0.837758 
1.066666 1.920000 -0.693333 -1.047198 1.570796 0.890118 
0.853333 1.920000 -0.746667 -1.151917 1.570796 0.837758 
0.746667 1.920000 -0.693333 -1.204277 1.570796 0.890118 
0.533333 1.920000 -0.746667 -1.308997 1.570796 0.837758 
0.426667 1.920000 -0.693333 -1.361357 1.570796 0.890118 
0.213333 1.920000 -0.746667 -1.466077 1.570796 0.837758 
0.106667 1.920000 -0.693333 -1.518437 1.570796 0.890118 
4.586667 1.920000 -0.853333 0.680678 1.570796 0.733038 
4.373333 1.920000 -0.906667 0.575959 1.570796 0.680678 
4.266666 1.920000 -0.853333 0.523599 1.570796 0.733038 
4.053333 1.920000 -0.906667 0.418879 1.570796 0.680678 
3.946667 1.920000 -0.853333 0.366519 1.570796 0.733038 
3.733333 1.920000 -0.906667 0.261799 1.570796 0.680678 
3.626667 1.920000 -0.853333 0.209439 1.570796 0.733038 
3.413333 1.920000 -0.906667 0.104720 1.570796 0.680678 
3.306667 1.920000 -0.853333 0.052360 1.570796 0.733038 
3.093333 1.920000 -0.906667 -0.052360 1.570796 0.680678 
2.986667 1.920000 -0.853333 -0.104720 1.570796 0.733038 
2.773333 1.920000 -0.906667 -0.209440 1.570796 0.680678 
2.666667 1.920000 -0.853333 -0.261800 1.570796 0.733038 
2.453333 1.920000 -0.906667 -0.366519 1.570796 0.680678 
2.346667 1.920000 -0.853333 -0.418879 1.570796 0.733038 
2.133333 1.920000 -0.906667 -0.523599 1.570796 0.680678 
2.026666 1.920000 -0.853333 -0.575959 1.570796 0.733038 
1.813333 1.920000 -0.906667 -0.680679 1.570796 0.680678 
1.706667 1.920000 -0.853333 -0.733038 1.570796 0.733038 
1.493333 1.920000 -0.906667 -0.837758 1.570796 0.680678 
1.386667 1.920000 -0.853333 -0.890118 1.570796 0.733038 
1.173333 1.920000 -0.906667 -0.994838 1.570796 0.680678 
1.066666 1.920000 -0.853333 -1.047198 1.570796 0.733038 
0.853333 1.920000 -0.906667 -1.151917 1.570796 0.680679 
0.746666 1.920000 -0.853333 -1.204278 1.570796 0.733038 
0.533333 1.920000 -0.906667 -1.308997 1.570796 0.680679 
0.426666 1.920000 -0.853333 -1.361357 1.570796 0.733038 
0.213333 1.920000 -0.906667 -1.466077 1.570796 0.680679 
0.106667 1.920000 -0.853333 -1.518437 1.570796 0.733038 
4.266666 1.920000 -1.013333 0.523599 1.570796 0.575959 
4.053333 1.920000 -1.066667 0.418879 1.570796 0.523599 
3.946667 1.920000 -1.013333 0.366519 1.570796 0.575959 
3.733334 1.920000 -1.066667 0.261799 1.570796 0.523599 
3.626667 1.920000 -1.013333 0.209439 1.570796 0.575959 
3.413333 1.920000 -1.066667 0.104720 1.570796 0.523599 
3.306667 1.920000 -1.013333 0.052360 1.570796 0.575959 
3.093333 1.920000 -1.066667 -0.052360 1.570796 0.523599 
2.986667 1.920000 -1.013333 -0.104720 1.570796 0.575959 
2.773333 1.920000 -1.066667 -0.209440 1.570796 0.523599 
2.666667 1.920000 -1.013333 -0.261799 1.570796 0.575959 
2.453333 1.920000 -1.066667 -0.366519 1.570796 0.523599 
2.346667 1.920000 -1.013333 -0.418879 1.570796 0.575959 
2.133333 1.920000 -1.066667 -0.523599 1.570796 0.523599 
2.026667 1.920000 -1.013333 -0.575959 1.570796 0.575959 
1.813333 1.920000 -1.066667 -0.680678 1.570796 0.523599 
1.706667 1.920000 -1.013333 -0.733038 1.570796 0.575959 
1.493333 1.920000 -1.066667 -0.837758 1.570796 0.523599 
1.386667 1.920000 -1.013333 -0.890118 1.570796 0.575959 
1.173333 1.920000 -1.066667 -0.994838 1.570796 0.523599 
1.066666 1.920000 -1.013333 -1.047198 1.570796 0.575959 
0.853333 1.920000 -1.066667 -1.151917 1.570796 0.523599 
0.746667 1.920000 -1.013333 -1.204277 1.570796 0.575959 
